ncols         104
nrows         119
xllcorner     437168.40625
yllcorner     5417716.5
cellsize      90
NODATA_value  -9999
-9999 -9999 -9999 -9999 -9999 -9999 -9999 -9999 -9999 -9999 -9999 -9999 -9999 -9999 -9999 -9999 -9999 -9999 -9999 -9999 -9999 -9999 -9999 -9999 -9999 -9999 -9999 -9999 -9999 -9999 -9999 -9999 -9999 -9999 -9999 -9999 -9999 -9999 -9999 -9999 -9999 -9999 -9999 -9999 -9999 -9999 -9999 -9999 -9999 -9999 -9999 -9999 -9999 -9999 -9999 -9999 33.07704 30.13047 28.38549 27.23333 26.82062 26.62334 -9999 -9999 -9999 -9999 -9999 -9999 -9999 -9999 -9999 -9999 -9999 -9999 -9999 -9999 -9999 -9999 -9999 -9999 -9999 -9999 -9999 -9999 -9999 -9999 -9999 -9999 -9999 -9999 -9999 -9999 -9999 -9999 -9999 -9999 -9999 -9999 -9999 -9999 -9999 -9999 -9999 -9999
-9999 -9999 -9999 -9999 -9999 -9999 -9999 -9999 -9999 -9999 -9999 -9999 -9999 -9999 -9999 -9999 -9999 -9999 -9999 -9999 -9999 -9999 -9999 -9999 -9999 -9999 -9999 -9999 -9999 -9999 -9999 -9999 -9999 -9999 -9999 -9999 -9999 -9999 -9999 -9999 -9999 -9999 -9999 -9999 -9999 -9999 -9999 -9999 -9999 -9999 -9999 -9999 -9999 -9999 -9999 -9999 35.45959 33.44599 29.7646 27.96735 26.64568 26.29904 26.11697 -9999 -9999 -9999 -9999 -9999 -9999 -9999 -9999 -9999 -9999 -9999 -9999 -9999 -9999 -9999 -9999 -9999 -9999 -9999 -9999 -9999 -9999 -9999 -9999 -9999 -9999 -9999 -9999 -9999 -9999 -9999 -9999 -9999 -9999 -9999 -9999 -9999 -9999 -9999 -9999 -9999
-9999 -9999 -9999 -9999 -9999 -9999 -9999 -9999 -9999 -9999 -9999 -9999 -9999 -9999 -9999 -9999 -9999 -9999 -9999 -9999 -9999 -9999 -9999 -9999 -9999 -9999 -9999 -9999 -9999 -9999 -9999 -9999 -9999 -9999 -9999 -9999 -9999 -9999 -9999 -9999 -9999 -9999 -9999 -9999 -9999 -9999 -9999 -9999 -9999 -9999 -9999 -9999 -9999 -9999 -9999 42.26696 38.36026 35.1055 33.12857 30.62157 27.74575 26.58017 25.82608 -9999 -9999 -9999 -9999 -9999 -9999 -9999 -9999 -9999 -9999 -9999 -9999 -9999 -9999 -9999 -9999 -9999 -9999 -9999 -9999 -9999 -9999 -9999 -9999 -9999 -9999 -9999 -9999 -9999 -9999 -9999 -9999 -9999 -9999 -9999 -9999 -9999 -9999 -9999 -9999 -9999
-9999 -9999 -9999 -9999 -9999 -9999 -9999 -9999 -9999 -9999 -9999 -9999 -9999 -9999 -9999 -9999 -9999 -9999 -9999 -9999 -9999 -9999 -9999 -9999 -9999 -9999 -9999 -9999 -9999 -9999 -9999 -9999 -9999 -9999 -9999 -9999 -9999 -9999 -9999 -9999 -9999 -9999 -9999 -9999 -9999 -9999 -9999 -9999 -9999 -9999 -9999 -9999 -9999 -9999 48.11983 45.3023 42.42809 40.23935 36.02683 34.13306 32.18822 29.19394 26.70203 -9999 -9999 -9999 -9999 -9999 -9999 -9999 -9999 -9999 -9999 -9999 -9999 -9999 -9999 -9999 -9999 -9999 -9999 -9999 -9999 -9999 -9999 -9999 -9999 -9999 -9999 -9999 -9999 -9999 -9999 -9999 -9999 -9999 -9999 -9999 -9999 -9999 -9999 -9999 -9999 -9999
-9999 -9999 -9999 -9999 -9999 -9999 -9999 -9999 -9999 -9999 -9999 -9999 -9999 -9999 -9999 -9999 -9999 -9999 -9999 -9999 -9999 -9999 -9999 -9999 -9999 -9999 -9999 -9999 -9999 -9999 -9999 -9999 -9999 -9999 -9999 -9999 -9999 -9999 -9999 -9999 -9999 -9999 -9999 -9999 -9999 -9999 -9999 -9999 -9999 -9999 -9999 -9999 -9999 -9999 49.69143 47.3662 45.79423 43.76032 41.26122 37.20353 35.77499 32.88869 29.99812 26.49529 24.89 -9999 -9999 -9999 -9999 -9999 -9999 -9999 -9999 -9999 -9999 -9999 -9999 -9999 -9999 -9999 -9999 -9999 -9999 -9999 -9999 -9999 -9999 -9999 -9999 -9999 -9999 -9999 -9999 -9999 -9999 -9999 -9999 -9999 -9999 -9999 -9999 -9999 -9999 -9999
-9999 -9999 -9999 -9999 -9999 -9999 -9999 -9999 -9999 -9999 -9999 -9999 -9999 -9999 -9999 -9999 -9999 -9999 -9999 -9999 -9999 -9999 -9999 -9999 -9999 -9999 -9999 -9999 -9999 -9999 -9999 -9999 -9999 -9999 -9999 -9999 -9999 -9999 -9999 -9999 -9999 -9999 -9999 -9999 -9999 -9999 -9999 -9999 -9999 -9999 -9999 -9999 -9999 53.70499 51.73943 50.41747 49.22508 46.52262 43.81586 40.85378 39.01426 36.32352 31.53478 28.11547 24.99946 -9999 -9999 -9999 -9999 -9999 -9999 -9999 -9999 -9999 -9999 -9999 -9999 -9999 -9999 -9999 -9999 -9999 -9999 -9999 -9999 -9999 -9999 -9999 -9999 -9999 -9999 -9999 -9999 -9999 -9999 -9999 -9999 -9999 -9999 -9999 -9999 -9999 -9999 -9999
-9999 -9999 -9999 -9999 -9999 -9999 -9999 -9999 -9999 -9999 -9999 -9999 -9999 -9999 -9999 -9999 -9999 -9999 -9999 -9999 -9999 -9999 -9999 -9999 -9999 -9999 -9999 -9999 -9999 -9999 -9999 -9999 -9999 -9999 -9999 -9999 -9999 -9999 -9999 -9999 -9999 -9999 -9999 -9999 -9999 -9999 -9999 -9999 -9999 -9999 -9999 -9999 -9999 56.17875 54.52022 53.35537 51.86171 49.13625 46.27256 43.69253 42.13412 39.07502 33.54227 29.4241 25.96665 23.9835 23.86604 -9999 -9999 -9999 -9999 -9999 -9999 -9999 -9999 -9999 -9999 -9999 -9999 -9999 -9999 -9999 -9999 -9999 -9999 -9999 -9999 -9999 -9999 -9999 -9999 -9999 -9999 -9999 -9999 -9999 -9999 -9999 -9999 -9999 -9999 -9999 -9999 -9999
-9999 -9999 -9999 -9999 -9999 -9999 -9999 -9999 -9999 -9999 -9999 -9999 -9999 -9999 -9999 -9999 -9999 -9999 -9999 -9999 -9999 -9999 -9999 -9999 -9999 -9999 -9999 -9999 -9999 -9999 -9999 -9999 -9999 -9999 -9999 -9999 -9999 -9999 -9999 -9999 -9999 -9999 -9999 -9999 -9999 -9999 -9999 -9999 -9999 -9999 -9999 -9999 60.33355 58.18616 56.88268 56.13362 53.83685 50.78611 48.39531 46.03359 44.39513 41.9006 36.8301 30.96514 27.69254 24.68221 23.64874 23.5848 -9999 -9999 -9999 -9999 -9999 -9999 -9999 -9999 -9999 -9999 -9999 -9999 -9999 -9999 -9999 -9999 -9999 -9999 -9999 -9999 -9999 -9999 -9999 -9999 -9999 -9999 -9999 -9999 -9999 -9999 -9999 -9999 -9999 -9999 -9999 -9999
-9999 -9999 -9999 -9999 -9999 -9999 -9999 -9999 -9999 -9999 -9999 -9999 -9999 -9999 -9999 -9999 -9999 -9999 -9999 -9999 -9999 -9999 -9999 -9999 -9999 -9999 -9999 -9999 -9999 -9999 -9999 -9999 -9999 -9999 -9999 -9999 -9999 -9999 -9999 -9999 -9999 -9999 -9999 -9999 -9999 -9999 -9999 -9999 -9999 -9999 -9999 -9999 62.5668 60.23899 59.43428 57.8227 55.12276 52.62135 50.38737 48.05278 46.07557 43.811 40.20061 33.089 28.7192 25.35935 23.68593 23.30639 -9999 -9999 -9999 -9999 -9999 -9999 -9999 -9999 -9999 -9999 -9999 -9999 -9999 -9999 -9999 -9999 -9999 -9999 -9999 -9999 -9999 -9999 -9999 -9999 -9999 -9999 -9999 -9999 -9999 -9999 -9999 -9999 -9999 -9999 -9999 -9999
-9999 -9999 -9999 -9999 -9999 -9999 -9999 -9999 -9999 -9999 -9999 -9999 -9999 -9999 -9999 -9999 -9999 -9999 -9999 -9999 -9999 -9999 -9999 -9999 -9999 -9999 -9999 -9999 -9999 -9999 -9999 -9999 -9999 -9999 -9999 -9999 -9999 -9999 -9999 -9999 -9999 -9999 -9999 -9999 -9999 -9999 -9999 -9999 -9999 -9999 -9999 66.54604 64.62099 62.66828 61.67837 59.33884 56.45069 54.17752 52.32169 49.96941 47.07325 45.08615 42.09294 36.26755 29.74401 25.76627 23.7025 -9999 -9999 -9999 -9999 -9999 -9999 -9999 -9999 -9999 -9999 -9999 -9999 -9999 -9999 -9999 -9999 -9999 -9999 -9999 -9999 -9999 -9999 -9999 -9999 -9999 -9999 -9999 -9999 -9999 -9999 -9999 -9999 -9999 -9999 -9999 -9999 -9999
-9999 -9999 -9999 -9999 -9999 -9999 -9999 -9999 -9999 -9999 -9999 -9999 -9999 -9999 -9999 -9999 -9999 -9999 -9999 -9999 -9999 -9999 -9999 -9999 -9999 -9999 -9999 -9999 -9999 -9999 -9999 -9999 -9999 -9999 -9999 -9999 -9999 -9999 -9999 -9999 -9999 -9999 -9999 -9999 -9999 -9999 -9999 -9999 -9999 -9999 -9999 68.64095 66.24532 64.66878 63.38772 61.251 58.29188 55.82878 54.10044 51.63451 48.3414 45.83691 43.02364 37.64033 31.13315 26.15794 23.63839 -9999 -9999 -9999 -9999 -9999 -9999 -9999 -9999 -9999 -9999 -9999 -9999 -9999 -9999 -9999 -9999 -9999 -9999 -9999 -9999 -9999 -9999 -9999 -9999 -9999 -9999 -9999 -9999 -9999 -9999 -9999 -9999 -9999 -9999 -9999 -9999 -9999
-9999 -9999 -9999 -9999 -9999 -9999 -9999 -9999 -9999 -9999 -9999 -9999 -9999 -9999 -9999 -9999 -9999 -9999 -9999 -9999 -9999 -9999 -9999 -9999 -9999 -9999 -9999 -9999 -9999 -9999 -9999 -9999 -9999 -9999 -9999 -9999 -9999 -9999 -9999 -9999 -9999 -9999 -9999 -9999 -9999 -9999 -9999 -9999 -9999 -9999 72.15857 70.35279 67.54938 66.49035 64.96851 62.74365 60.38599 57.78617 55.48214 52.52211 48.85029 45.8617 42.845 37.6862 30.17225 26.54535 23.71816 -9999 -9999 -9999 -9999 -9999 -9999 -9999 -9999 -9999 -9999 -9999 -9999 -9999 -9999 -9999 -9999 -9999 -9999 -9999 -9999 -9999 -9999 -9999 -9999 -9999 -9999 -9999 -9999 -9999 -9999 -9999 -9999 -9999 -9999 -9999 -9999 -9999
-9999 -9999 -9999 -9999 -9999 -9999 -9999 -9999 -9999 -9999 -9999 -9999 -9999 -9999 -9999 -9999 -9999 -9999 -9999 -9999 -9999 -9999 -9999 -9999 -9999 -9999 -9999 -9999 -9999 -9999 -9999 -9999 -9999 -9999 -9999 -9999 -9999 -9999 -9999 -9999 -9999 -9999 -9999 -9999 -9999 -9999 -9999 -9999 -9999 75.34985 73.87489 71.65884 70.34881 68.31014 66.20204 64.06081 61.65939 59.15318 56.07286 52.27335 47.97413 44.40506 41.28638 35.65561 30.09737 26.66012 23.98762 23.12013 -9999 -9999 -9999 -9999 -9999 -9999 -9999 -9999 -9999 -9999 -9999 -9999 -9999 -9999 -9999 -9999 -9999 -9999 -9999 -9999 -9999 -9999 -9999 -9999 -9999 -9999 -9999 -9999 -9999 -9999 -9999 -9999 -9999 -9999 -9999 -9999
-9999 -9999 -9999 -9999 -9999 -9999 -9999 -9999 -9999 -9999 -9999 -9999 -9999 -9999 -9999 -9999 -9999 -9999 -9999 -9999 -9999 -9999 -9999 -9999 -9999 -9999 -9999 -9999 -9999 -9999 -9999 -9999 -9999 -9999 -9999 -9999 -9999 -9999 -9999 -9999 -9999 -9999 -9999 -9999 -9999 -9999 -9999 -9999 -9999 77.17526 75.26196 73.31132 71.64336 69.58514 67.0313 64.21935 60.86929 57.27777 54.13411 50.51868 46.2361 42.10112 38.01386 34.20683 30.35337 26.04604 23.53683 22.76307 -9999 -9999 -9999 -9999 -9999 -9999 -9999 -9999 -9999 -9999 -9999 -9999 -9999 -9999 -9999 -9999 -9999 -9999 -9999 -9999 -9999 -9999 -9999 -9999 -9999 -9999 -9999 -9999 -9999 -9999 -9999 -9999 -9999 -9999 -9999 -9999
-9999 -9999 -9999 -9999 -9999 -9999 -9999 -9999 -9999 -9999 -9999 -9999 -9999 -9999 -9999 -9999 -9999 -9999 -9999 -9999 -9999 -9999 -9999 -9999 -9999 -9999 -9999 -9999 -9999 -9999 -9999 -9999 -9999 -9999 -9999 -9999 -9999 -9999 -9999 -9999 -9999 -9999 -9999 -9999 -9999 -9999 -9999 81.14262 80.10709 78.51057 76.4998 74.32742 72.17021 70.04425 67.76343 64.86552 61.91042 57.65564 53.9906 49.20347 45.61314 43.05755 40.96875 38.72037 32.69152 26.97174 23.40169 21.88865 21.71278 21.40186 -9999 -9999 -9999 -9999 -9999 -9999 -9999 -9999 -9999 -9999 -9999 -9999 -9999 -9999 -9999 -9999 -9999 -9999 -9999 -9999 -9999 -9999 -9999 -9999 -9999 -9999 -9999 -9999 -9999 -9999 -9999 -9999 -9999 -9999
-9999 -9999 -9999 -9999 -9999 -9999 -9999 -9999 -9999 -9999 -9999 -9999 -9999 -9999 -9999 -9999 -9999 -9999 -9999 -9999 -9999 -9999 -9999 -9999 -9999 -9999 -9999 -9999 -9999 -9999 -9999 -9999 -9999 -9999 -9999 -9999 -9999 -9999 -9999 -9999 -9999 -9999 -9999 -9999 -9999 -9999 84.0457 82.44101 80.74094 78.84614 76.82428 74.56062 72.1358 69.87243 67.91685 65.13207 61.86742 57.64732 54.03696 52.583 49.98364 47.4443 43.70309 40.18334 35.11882 28.88658 24.40401 21.93721 21.12321 20.77736 20.49665 -9999 -9999 -9999 -9999 -9999 -9999 -9999 -9999 -9999 -9999 -9999 -9999 -9999 -9999 -9999 -9999 -9999 -9999 -9999 -9999 -9999 -9999 -9999 -9999 -9999 -9999 -9999 -9999 -9999 -9999 -9999 -9999 -9999
-9999 -9999 -9999 -9999 -9999 -9999 -9999 -9999 -9999 -9999 -9999 -9999 -9999 -9999 -9999 -9999 -9999 -9999 -9999 -9999 -9999 -9999 -9999 -9999 -9999 -9999 -9999 -9999 -9999 -9999 -9999 -9999 -9999 -9999 -9999 -9999 -9999 -9999 -9999 -9999 -9999 -9999 -9999 -9999 -9999 85.46585 84.83112 83.04344 80.46541 78.03084 76.10813 73.95214 71.54211 69.39682 67.48669 65.12047 61.79834 59.30386 56.86953 54.47268 51.53366 48.33721 44.85242 41.86138 37.97828 32.92088 26.63974 23.11461 21.36763 20.56873 20.05309 -9999 -9999 -9999 -9999 -9999 -9999 -9999 -9999 -9999 -9999 -9999 -9999 -9999 -9999 -9999 -9999 -9999 -9999 -9999 -9999 -9999 -9999 -9999 -9999 -9999 -9999 -9999 -9999 -9999 -9999 -9999 -9999 -9999
-9999 -9999 -9999 -9999 -9999 -9999 -9999 -9999 -9999 -9999 -9999 -9999 -9999 -9999 -9999 -9999 -9999 -9999 -9999 -9999 -9999 -9999 -9999 -9999 -9999 -9999 -9999 -9999 -9999 -9999 -9999 -9999 -9999 -9999 -9999 -9999 -9999 -9999 -9999 -9999 -9999 -9999 -9999 -9999 86.23689 85.45718 84.41273 81.95026 79.06158 77.03271 74.97505 72.71158 70.27739 68.50182 66.6385 64.61001 62.00529 60.24609 57.6692 54.63264 51.92949 48.18985 45.57483 43.14106 39.75045 35.21845 29.73387 24.44519 21.9872 20.67399 19.93147 -9999 -9999 -9999 -9999 -9999 -9999 -9999 -9999 -9999 -9999 -9999 -9999 -9999 -9999 -9999 -9999 -9999 -9999 -9999 -9999 -9999 -9999 -9999 -9999 -9999 -9999 -9999 -9999 -9999 -9999 -9999 -9999 -9999
-9999 -9999 -9999 -9999 -9999 -9999 -9999 -9999 -9999 -9999 -9999 -9999 -9999 -9999 -9999 -9999 -9999 -9999 -9999 -9999 -9999 -9999 -9999 -9999 -9999 -9999 -9999 -9999 -9999 -9999 91.76682 91.11784 90.73638 90.33387 89.58839 -9999 -9999 -9999 -9999 -9999 -9999 -9999 85.82526 86.38934 86.20158 85.16856 82.39371 79.76327 77.70195 75.95229 73.53708 71.12153 69.01067 67.17913 65.0387 62.88534 60.93959 59.09082 56.78077 54.02126 51.57872 48.59946 45.57598 43.19938 40.20299 36.19148 32.7212 25.03816 21.9126 20.71713 19.97521 19.17085 -9999 -9999 -9999 -9999 -9999 -9999 -9999 -9999 -9999 -9999 -9999 -9999 -9999 -9999 -9999 -9999 -9999 -9999 -9999 -9999 -9999 -9999 -9999 -9999 -9999 -9999 -9999 -9999 -9999 -9999 -9999 -9999
-9999 -9999 -9999 -9999 -9999 -9999 -9999 -9999 -9999 -9999 -9999 -9999 -9999 -9999 -9999 -9999 -9999 -9999 -9999 -9999 -9999 -9999 -9999 -9999 -9999 -9999 -9999 -9999 -9999 93.28499 91.21413 90.0269 88.9542 87.79816 86.61221 88.00306 88.29783 87.63481 86.47929 85.54741 84.7936 84.73557 84.00641 84.44996 84.38927 82.63513 79.92866 77.93303 76.14592 74.06537 71.75893 69.42577 67.36476 65.13624 63.05038 61.1168 59.09225 57.02914 55.03299 53.18726 50.92329 48.06628 45.14782 42.81896 39.39035 36.65506 32.56941 25.3332 21.57081 20.75258 20.05093 19.33225 18.68168 18.29385 -9999 -9999 -9999 -9999 -9999 -9999 -9999 -9999 -9999 -9999 -9999 -9999 -9999 -9999 -9999 -9999 -9999 -9999 -9999 -9999 -9999 -9999 -9999 -9999 -9999 -9999 -9999 -9999 -9999 -9999
-9999 -9999 -9999 -9999 -9999 -9999 -9999 -9999 -9999 -9999 -9999 -9999 -9999 -9999 -9999 -9999 -9999 -9999 -9999 -9999 -9999 -9999 -9999 -9999 -9999 -9999 -9999 94.62732 93.4523 90.6808 88.50384 87.10036 85.38985 83.58869 82.55204 85.19419 86.03515 85.85752 85.29599 83.21555 82.10884 81.92446 80.67082 81.32381 80.88949 79.49755 77.93282 76.37283 74.15402 71.88212 69.61192 67.37081 65.2345 62.50285 60.73435 58.97007 56.93361 55.20628 53.30052 50.92258 49.20432 46.65585 43.93752 41.95031 38.14474 34.3166 31.59215 26.04384 21.96713 20.76093 20.14706 19.26982 18.5373 17.8855 17.90413 -9999 -9999 -9999 -9999 -9999 -9999 -9999 -9999 -9999 -9999 -9999 -9999 -9999 -9999 -9999 -9999 -9999 -9999 -9999 -9999 -9999 -9999 -9999 -9999 -9999 -9999 -9999 -9999 -9999
-9999 -9999 -9999 -9999 -9999 -9999 -9999 -9999 -9999 -9999 -9999 -9999 -9999 -9999 -9999 -9999 -9999 -9999 -9999 -9999 -9999 -9999 98.50214 98.33168 98.42432 97.3712 95.77119 93.67362 90.35946 87.40996 84.7361 83.22131 81.723 79.63742 78.83205 82.66156 82.94242 83.23956 82.77874 79.98186 79.27448 79.47839 77.11304 77.6902 77.87534 77.13199 75.81137 74.03992 71.69907 69.50327 67.19455 65.10236 62.33593 59.95778 58.39099 56.58395 54.82747 53.45266 51.57868 49.52408 46.09382 43.80908 42.3889 39.97038 36.48597 33.52549 31.39198 26.73493 24.10106 21.28328 20.28872 19.43811 18.63001 17.70641 17.28034 -9999 -9999 -9999 -9999 -9999 -9999 -9999 -9999 -9999 -9999 -9999 -9999 -9999 -9999 -9999 -9999 -9999 -9999 -9999 -9999 -9999 -9999 -9999 -9999 -9999 -9999 -9999 -9999 -9999
-9999 -9999 -9999 -9999 -9999 -9999 -9999 -9999 -9999 -9999 -9999 -9999 -9999 -9999 -9999 -9999 -9999 -9999 -9999 -9999 -9999 95.03699 95.74791 95.85429 96.17786 95.86188 94.16307 92.05113 88.1402 84.44968 81.54911 79.28629 77.97687 75.69247 75.40633 78.77245 80.12107 80.43611 79.71817 77.24567 75.62511 76.13271 74.25834 73.88006 74.93706 74.91982 73.26573 71.2285 69.04685 66.85636 64.55236 62.26017 59.80138 57.75422 55.87982 54.08184 52.5636 50.57304 48.81313 46.804 43.6301 41.98059 39.41608 36.53187 34.60423 33.25121 31.22177 27.19082 24.99956 21.6508 19.01476 19.03046 18.23529 17.43017 16.8436 17.13757 -9999 -9999 -9999 -9999 -9999 -9999 -9999 -9999 -9999 -9999 -9999 -9999 -9999 -9999 -9999 -9999 -9999 -9999 -9999 -9999 -9999 -9999 -9999 -9999 -9999 -9999 -9999 -9999
-9999 -9999 -9999 -9999 -9999 -9999 -9999 -9999 -9999 -9999 -9999 -9999 -9999 -9999 -9999 -9999 -9999 -9999 -9999 -9999 90.33013 92.19705 92.8678 93.19819 93.2659 93.03937 92.11556 90.41354 85.91503 81.91454 77.57533 73.70985 72.9431 70.70548 71.51393 74.01755 76.24943 76.98019 76.75584 74.92961 71.82538 71.6129 71.34505 70.68224 71.46454 71.40973 69.73914 68.00209 66.04914 63.80016 61.3786 59.34441 57.20691 54.91035 52.68592 50.76633 49.52621 47.67786 45.86684 43.74172 42.11909 39.95433 36.36166 34.39011 33.12556 31.22788 29.292 26.12383 23.07063 20.87056 18.48609 18.17702 17.58822 16.92946 16.40893 16.43728 -9999 -9999 -9999 -9999 -9999 -9999 -9999 -9999 -9999 -9999 -9999 -9999 -9999 -9999 -9999 -9999 -9999 -9999 -9999 -9999 -9999 -9999 -9999 -9999 -9999 -9999 -9999 -9999
-9999 -9999 -9999 -9999 -9999 -9999 -9999 -9999 -9999 -9999 -9999 -9999 -9999 -9999 -9999 -9999 -9999 -9999 -9999 86.19543 87.89406 89.52959 89.41856 89.71014 90.54474 90.86035 90.39275 87.87833 83.67752 79.9706 75.26661 70.20485 67.12855 65.54385 67.58479 70.69406 72.38395 74.20272 74.19144 72.32515 69.47565 66.82326 67.46838 65.14057 67.04604 67.48844 66.66476 65.04853 62.92477 60.79941 58.73455 56.36599 53.94156 51.58595 49.47825 47.6106 46.22443 44.42376 42.53342 39.83002 38.41959 36.37278 34.32128 32.35445 30.86704 27.71506 26.63715 25.00047 21.41011 20.23089 19.02986 17.84222 16.99323 16.45406 15.99548 15.87959 15.77465 -9999 -9999 -9999 -9999 -9999 -9999 -9999 -9999 -9999 -9999 -9999 -9999 -9999 -9999 -9999 -9999 -9999 -9999 -9999 -9999 -9999 -9999 -9999 -9999 -9999 -9999 -9999
-9999 -9999 -9999 -9999 -9999 -9999 -9999 -9999 -9999 -9999 -9999 -9999 -9999 -9999 -9999 -9999 -9999 -9999 -9999 84.16666 85.54856 86.4744 85.8384 85.68528 87.45876 88.91128 88.50359 85.68581 82.34862 78.45831 73.44115 68.01971 64.06116 61.07352 64.63052 67.08537 69.53239 71.3483 71.60346 70.04698 67.51309 63.52836 61.81365 60.41021 61.97044 64.02792 63.49928 61.81981 59.86385 57.88786 55.5759 53.27818 50.92748 48.27068 46.14609 44.51717 42.40498 40.69839 38.54006 35.67172 34.74945 33.82822 31.70856 29.08836 27.74519 26.41695 24.11721 23.22878 21.38141 20.05631 18.89891 18.01013 17.04979 16.17957 15.7794 15.60842 15.50096 -9999 -9999 -9999 -9999 -9999 -9999 -9999 -9999 -9999 -9999 -9999 -9999 -9999 -9999 -9999 -9999 -9999 -9999 -9999 -9999 -9999 -9999 -9999 -9999 -9999 -9999 -9999
-9999 -9999 -9999 -9999 -9999 -9999 -9999 -9999 -9999 -9999 -9999 -9999 -9999 -9999 -9999 -9999 -9999 -9999 81.3372 81.6777 83.2625 83.69382 83.03674 82.76276 84.42954 86.94218 87.04282 84.46465 81.0899 76.60104 72.23233 66.76495 62.35421 57.65493 60.1725 63.73846 65.90284 67.7291 68.68028 67.44803 65.19067 61.79723 57.28522 56.30848 58.05703 60.1516 59.94975 58.64705 56.79803 54.66809 52.1619 49.84916 47.38414 45.29939 43.4538 41.26803 39.49351 37.05953 34.6122 32.36141 31.14206 29.71321 27.0791 26.07093 25.18547 23.13149 21.95427 21.29608 20.52793 19.24325 18.38285 17.63995 16.94781 16.1931 15.66309 15.35944 15.2359 -9999 -9999 -9999 -9999 -9999 -9999 -9999 -9999 -9999 -9999 -9999 -9999 -9999 -9999 -9999 -9999 -9999 -9999 -9999 -9999 -9999 -9999 -9999 -9999 -9999 -9999 -9999
-9999 -9999 -9999 -9999 -9999 -9999 -9999 -9999 -9999 -9999 -9999 -9999 -9999 -9999 -9999 -9999 -9999 -9999 79.34324 79.40509 80.44059 80.82135 79.84629 79.72726 82.17931 84.6487 85.62485 84.32919 80.50841 76.32634 72.63327 67.74522 62.72589 57.24893 55.96735 59.37915 61.89301 63.74042 65.02797 64.45829 62.47828 59.64578 55.14619 51.42515 53.31381 56.86397 57.17467 55.49601 53.53006 51.15929 48.79093 46.89517 44.94519 43.01423 41.15606 38.63511 34.93574 33.19233 32.10968 31.08641 29.03925 26.43418 23.70236 22.58216 21.80384 21.07364 20.71902 20.24257 19.76395 18.90492 17.95266 17.06003 16.32947 15.79503 15.38727 15.10012 14.96574 14.95924 15.06824 -9999 -9999 -9999 -9999 -9999 -9999 -9999 -9999 -9999 -9999 -9999 -9999 -9999 -9999 -9999 -9999 -9999 -9999 -9999 -9999 -9999 -9999 -9999 -9999 -9999
-9999 -9999 -9999 -9999 -9999 -9999 -9999 -9999 -9999 -9999 -9999 -9999 -9999 -9999 -9999 -9999 -9999 -9999 77.82913 77.39069 77.40113 77.7554 76.85358 77.34482 80.16413 83.34992 85.28201 84.90015 83.29777 79.6937 74.72364 70.54125 64.84486 59.00901 53.1278 54.94102 57.58565 59.49385 60.9031 60.8695 59.77723 57.62774 53.24907 48.11375 50.86987 53.17146 53.45514 51.95588 49.96238 47.83129 45.89827 44.13881 42.42372 40.79605 38.95592 36.36152 33.43166 31.2892 30.45492 29.70041 26.01521 22.87521 21.93298 21.25164 20.83602 20.36374 19.98136 19.51701 19.05877 18.5071 17.5779 16.72537 15.97457 15.44111 15.05796 14.80703 14.67388 14.66741 14.76127 -9999 -9999 -9999 -9999 -9999 -9999 -9999 -9999 -9999 -9999 -9999 -9999 -9999 -9999 -9999 -9999 -9999 -9999 -9999 -9999 -9999 -9999 -9999 -9999 -9999
-9999 -9999 -9999 -9999 -9999 -9999 -9999 -9999 -9999 -9999 -9999 -9999 -9999 -9999 -9999 -9999 -9999 -9999 76.80251 75.81113 75.00023 74.35574 73.65594 75.01099 79.444 82.92036 86.54194 88.65731 87.15266 81.65549 76.83176 71.76242 66.31133 59.67773 53.55527 49.05154 52.36113 55.50751 57.46602 58.05451 57.33248 55.14538 50.745 46.66536 47.40934 49.89369 49.79826 48.71255 47.33215 45.25101 42.04396 40.49216 39.62726 38.07221 36.35387 34.3166 32.14086 30.16214 29.40977 26.85928 22.92842 21.33886 20.77852 20.53126 20.20509 19.83331 19.57098 19.32512 18.96421 18.34265 17.67243 17.22647 16.30269 15.4516 14.84682 14.57753 14.42382 14.37236 14.40445 14.42249 -9999 -9999 -9999 -9999 -9999 -9999 -9999 -9999 -9999 -9999 -9999 -9999 -9999 -9999 -9999 -9999 -9999 -9999 -9999 -9999 -9999 -9999 -9999 -9999
-9999 -9999 -9999 -9999 -9999 -9999 -9999 -9999 -9999 -9999 -9999 -9999 -9999 -9999 -9999 -9999 -9999 77.78256 76.32896 75.10979 73.65475 72.20597 71.00078 71.47922 75.60742 81.68713 87.83655 91.81667 88.43494 82.55536 77.06581 71.11687 66.1695 59.49644 54.0437 47.47426 47.2156 50.95475 53.19582 54.43874 54.18256 51.86125 48.34675 44.58771 43.24562 45.5053 45.99664 45.07059 44.25931 42.66801 39.39182 36.42102 34.53386 33.81256 32.39022 -9999 28.07443 25.64605 23.63388 21.75829 21.28831 21.3826 21.01089 20.52378 20.45624 20.46623 20.37793 20.28151 20.46819 20.53091 20.34489 18.88954 18.07452 16.96257 15.20364 14.46832 14.36096 14.21372 14.05081 13.99523 -9999 -9999 -9999 -9999 -9999 -9999 -9999 -9999 -9999 -9999 -9999 -9999 -9999 -9999 -9999 -9999 -9999 -9999 -9999 -9999 -9999 -9999 -9999 -9999
-9999 -9999 -9999 -9999 -9999 -9999 -9999 -9999 -9999 -9999 -9999 -9999 -9999 -9999 -9999 83.33479 81.32612 78.83572 77.18044 75.53499 73.35403 71.17802 69.52211 68.18884 68.66144 72.114 81.66993 89.61198 86.30863 80.79556 73.88317 69.3483 64.63826 58.81699 54.01255 47.09143 43.94664 46.38226 49.86373 50.9916 50.73437 48.91517 45.40476 42.49765 39.76419 41.66474 42.28707 41.33071 40.33157 39.16473 35.89161 32.36585 30.77475 30.41531 29.81127 -9999 25.73407 24.0173 22.71703 21.92354 21.7685 21.5505 21.13135 21.28366 21.30429 21.39668 21.59651 22.63131 24.62502 26.38517 26.77824 25.80875 23.57977 20.28529 17.29925 15.00224 14.78704 14.36439 13.95821 13.73105 13.62785 -9999 -9999 -9999 -9999 -9999 -9999 -9999 -9999 -9999 -9999 -9999 -9999 -9999 -9999 -9999 -9999 -9999 -9999 -9999 -9999 -9999 -9999 -9999
-9999 -9999 -9999 -9999 -9999 -9999 -9999 -9999 -9999 -9999 -9999 -9999 -9999 90.15905 87.63181 84.6566 82.95175 80.70463 79.02061 77.53041 75.42934 72.94041 70.4912 67.71462 65.30054 65.39493 68.16622 73.96976 70.97299 74.73028 69.24273 66.30867 61.46302 57.31339 52.81862 46.64512 40.68859 42.52052 44.96715 46.73444 46.85588 45.56637 43.19598 40.07864 35.72049 37.59415 39.5141 37.06859 34.90778 32.78343 30.82649 -9999 -9999 -9999 -9999 -9999 25.67388 23.64 22.99023 22.61533 22.24366 22.00485 22.82008 23.08926 23.65178 24.74867 26.91913 29.17698 30.6984 31.51391 31.91765 30.43139 28.08355 23.15705 19.11306 16.16307 15.33658 14.61777 14.14608 13.79967 13.50599 13.30064 -9999 -9999 -9999 -9999 -9999 -9999 -9999 -9999 -9999 -9999 -9999 -9999 -9999 -9999 -9999 -9999 -9999 -9999 -9999 -9999 -9999 -9999
-9999 -9999 -9999 -9999 -9999 -9999 -9999 -9999 -9999 -9999 -9999 -9999 92.08228 90.7582 88.79099 86.45483 84.97878 82.97409 81.29301 79.65668 77.47073 75.39959 73.28831 70.3422 66.4578 63.12333 61.0603 61.98439 64.70328 65.62775 63.30841 60.75728 58.19162 55.25099 50.87567 45.85603 39.17678 39.04461 41.02391 42.36765 42.42571 41.32131 39.30285 35.44813 32.90463 32.50264 32.35043 31.05848 30.17987 29.46382 -9999 -9999 -9999 -9999 -9999 -9999 25.65482 23.9634 23.69237 24.20748 24.79313 25.47507 25.99895 26.65806 28.85215 31.36684 32.9972 34.47705 34.9126 35.23922 35.07344 33.30521 30.70861 27.45958 19.84534 17.23077 16.1365 15.12257 14.54177 14.13629 13.70784 13.23181 -9999 -9999 -9999 -9999 -9999 -9999 -9999 -9999 -9999 -9999 -9999 -9999 -9999 -9999 -9999 -9999 -9999 -9999 -9999 -9999 -9999 -9999
-9999 -9999 -9999 -9999 -9999 -9999 -9999 -9999 -9999 -9999 -9999 -9999 92.37743 91.22231 89.35336 87.9982 86.93067 85.88591 84.42284 82.02312 79.59586 78.24373 77.6198 74.21024 70.05782 65.91979 61.42775 57.79208 57.83536 57.66528 57.39373 56.6059 54.53218 51.54271 48.30836 44.36786 38.68975 35.38604 37.68557 38.38082 37.17378 35.03499 32.42091 30.61248 29.92862 29.69276 29.58781 -9999 -9999 -9999 -9999 -9999 -9999 -9999 -9999 -9999 26.26006 24.57419 25.32076 26.81209 28.89976 30.84946 32.85869 33.4991 35.80219 38.08399 39.19598 39.61475 39.45995 39.28799 38.61273 36.57158 33.54325 30.65866 27.16495 19.71554 17.15008 15.87417 15.11697 14.67807 14.04144 13.34305 12.86856 -9999 -9999 -9999 -9999 -9999 -9999 -9999 -9999 -9999 -9999 -9999 -9999 -9999 -9999 -9999 -9999 -9999 -9999 -9999 -9999 -9999
-9999 -9999 -9999 -9999 -9999 -9999 -9999 -9999 -9999 -9999 -9999 -9999 -9999 92.34149 90.72338 90.43018 89.02112 87.60384 86.14786 84.26311 81.14465 79.81029 81.6815 80.11026 73.69894 68.82533 63.67183 57.86644 53.82528 54.31956 53.91359 52.70889 49.98948 47.64888 45.40717 41.96087 37.96146 33.92779 32.71589 32.4278 31.75589 30.2622 29.74159 29.50594 29.27385 -9999 -9999 -9999 -9999 -9999 -9999 -9999 -9999 -9999 -9999 29.44795 28.07359 27.25724 30.63635 35.38499 37.60093 39.46743 39.91637 40.0713 41.03933 41.89354 42.07124 41.95479 41.8632 41.61625 40.96945 39.61296 36.6967 33.03184 30.75241 27.16852 19.7391 17.08324 15.75856 14.99476 13.88008 13.07429 12.65105 -9999 -9999 -9999 -9999 -9999 -9999 -9999 -9999 -9999 -9999 -9999 -9999 -9999 -9999 -9999 -9999 -9999 -9999 -9999 -9999 -9999
-9999 -9999 -9999 -9999 -9999 -9999 -9999 -9999 -9999 -9999 -9999 -9999 -9999 93.51396 92.59089 91.54452 89.79185 88.04483 85.8706 83.9353 80.8616 79.33521 80.89928 79.89436 73.65583 68.259 63.25656 56.79979 51.7216 49.80105 48.42516 47.07678 45.7729 44.36013 41.42108 38.90939 35.38821 33.05275 32.03948 31.16657 30.36434 30.5347 30.65233 29.87091 29.41736 29.05005 28.87183 -9999 -9999 -9999 -9999 30.28125 32.84922 35.15657 36.38613 35.43484 32.52725 30.89267 38.05896 40.96645 42.27109 43.35934 44.16461 44.34541 45.46674 45.75137 45.69925 45.50778 45.09422 44.27854 43.09919 41.28523 38.89376 35.36199 32.25258 29.49269 23.72456 19.17417 16.70275 15.17591 13.58793 12.82028 -9999 -9999 -9999 -9999 -9999 -9999 -9999 -9999 -9999 -9999 -9999 -9999 -9999 -9999 -9999 -9999 -9999 -9999 -9999 -9999 -9999 -9999
-9999 -9999 -9999 -9999 -9999 -9999 -9999 -9999 -9999 -9999 -9999 -9999 -9999 94.28102 93.11498 91.2122 89.3356 86.22662 83.53951 81.42068 78.36745 74.95247 72.76191 71.387 69.17833 64.69709 60.36554 55.49874 50.40457 47.65108 44.98232 42.97606 41.60374 39.42132 37.67819 35.51888 32.7083 32.23056 32.13715 32.01281 32.61269 33.75502 33.80187 32.7541 31.54013 31.05445 30.13243 29.75774 30.1448 30.58734 33.53125 37.32497 39.36567 40.85049 41.76538 41.76734 38.4328 36.64996 40.82755 44.20768 45.82055 47.23347 47.92917 48.73772 49.94427 50.00161 49.67482 48.98568 47.72278 46.28711 44.90276 42.90482 40.35715 36.48901 33.15108 29.61791 26.60216 21.40343 17.00965 15.32253 13.6797 12.80182 12.26276 -9999 -9999 -9999 -9999 -9999 -9999 -9999 -9999 -9999 -9999 -9999 -9999 -9999 -9999 -9999 -9999 -9999 -9999 -9999 -9999 -9999
-9999 -9999 -9999 -9999 -9999 -9999 -9999 -9999 -9999 -9999 -9999 -9999 -9999 94.6248 92.53387 89.59716 87.11256 82.81091 79.56306 77.08287 74.73727 72.08847 69.07597 66.12451 63.80691 60.83272 57.64012 54.42146 50.45883 46.99945 43.51128 40.54638 38.15411 36.62794 35.23698 33.05984 32.47656 33.36853 33.05016 33.76772 35.6347 37.29526 37.61128 37.29596 36.88708 35.69741 33.94978 31.56988 32.10527 34.7197 39.3613 41.50977 43.48694 45.24821 46.18391 45.94162 42.25554 41.47747 44.1114 47.30055 48.99177 51.00194 51.7024 53.07102 53.98228 54.12303 53.3401 52.09478 50.41342 47.97794 46.02932 43.50977 40.3107 36.65912 33.15161 28.57839 24.55657 19.84167 16.91055 15.38074 14.35432 13.10037 12.3173 11.67043 -9999 -9999 -9999 -9999 -9999 -9999 -9999 -9999 -9999 -9999 -9999 -9999 -9999 -9999 -9999 -9999 -9999 -9999 -9999 -9999
-9999 -9999 -9999 -9999 -9999 -9999 -9999 -9999 -9999 -9999 -9999 -9999 -9999 93.87376 90.16985 87.05666 83.72786 79.52824 74.93038 71.94403 70.65591 68.84808 66.00247 61.83641 58.97007 56.07919 54.60692 52.36004 49.22246 45.00218 42.28941 39.763 36.9541 35.00842 33.41132 32.34578 34.45633 37.20842 37.61163 38.04232 40.26008 41.40129 41.98289 41.78758 41.24269 39.96139 36.83971 34.06269 34.08265 38.78861 42.24841 45.4465 48.09243 49.28238 49.63752 49.69349 48.47414 47.05046 49.82504 51.47101 52.72092 54.73518 55.94963 56.71826 57.0224 56.5814 55.27651 53.58977 51.24211 48.79097 45.94085 42.44004 38.80465 35.02884 30.46999 25.52765 21.33096 19.33495 17.43513 16.3903 15.90179 14.12174 12.66416 11.70437 11.08628 10.71124 -9999 -9999 -9999 -9999 -9999 -9999 -9999 -9999 -9999 -9999 -9999 -9999 -9999 -9999 -9999 -9999 -9999 -9999
-9999 -9999 -9999 -9999 -9999 -9999 -9999 -9999 -9999 -9999 -9999 -9999 -9999 92.53457 89.31543 85.59873 81.24463 77.16264 72.94772 67.60175 65.76608 65.47211 62.9155 59.6454 56.02193 53.13811 51.60899 49.27241 45.21046 42.49888 40.15531 37.61964 35.27113 33.71884 32.61479 34.49195 40.16862 42.20775 42.68437 43.18424 44.58799 46.14804 47.48656 47.63132 46.40321 44.07813 40.79955 36.9211 36.52995 41.22227 45.37064 49.33712 51.27179 52.43862 52.983 52.90672 52.1786 51.78627 53.84517 54.85285 56.36225 58.6157 59.25085 59.74478 59.63078 58.57952 56.57605 54.26789 51.3712 48.53559 44.54618 40.52534 36.70061 31.51734 26.14382 22.7451 21.86883 23.34775 23.69443 18.80498 16.88985 15.09694 13.19846 12.00841 11.13008 10.47443 -9999 -9999 -9999 -9999 -9999 -9999 -9999 -9999 -9999 -9999 -9999 -9999 -9999 -9999 -9999 -9999 -9999 -9999
-9999 -9999 -9999 -9999 -9999 -9999 -9999 -9999 -9999 -9999 -9999 -9999 -9999 90.93516 87.73381 83.57652 79.19698 74.81236 70.76425 64.60207 59.93818 61.30176 59.15475 56.26401 53.18251 49.33726 45.90644 43.26852 41.073 39.25743 37.34367 35.54416 34.55616 34.94193 36.06339 40.5754 44.67839 47.14436 48.66095 49.02396 50.15714 51.67968 52.36441 52.08366 51.40599 48.82886 44.715 39.50931 38.59207 43.68764 48.56083 51.75819 53.87482 55.81683 56.91906 57.08099 55.93593 55.57618 58.45999 60.27203 60.5541 62.42833 63.4232 62.82441 61.84407 59.63393 57.07875 53.81441 50.99499 47.194 42.66885 38.36813 33.66917 27.1861 24.00035 24.36098 28.14337 30.86348 30.42524 28.93766 22.26596 16.64301 14.19121 12.52348 11.39227 10.53351 -9999 -9999 -9999 -9999 -9999 -9999 -9999 -9999 -9999 -9999 -9999 -9999 -9999 -9999 -9999 -9999 -9999 -9999
-9999 -9999 -9999 -9999 -9999 -9999 -9999 -9999 -9999 -9999 -9999 -9999 -9999 86.88264 84.69964 80.57462 76.47306 72.25432 68.78918 64.13227 57.89433 54.90582 54.01619 52.49407 49.10283 44.32573 40.9339 39.05579 38.0886 36.93253 35.9402 35.87014 36.25769 37.13473 40.09084 45.72823 49.67059 51.89992 53.42575 54.39311 54.74434 55.49031 56.14425 55.64854 53.79784 51.25686 47.57735 42.3101 40.3702 45.77287 50.71381 54.09062 56.82573 58.82094 60.41934 60.95697 60.57323 60.86404 63.12344 64.60557 64.54656 65.46684 65.63523 64.51262 62.90128 60.31722 56.72969 52.61594 49.50055 45.18809 40.66063 35.72857 28.95349 26.42265 27.92859 30.99478 33.67399 35.44673 34.55438 32.10401 28.86935 21.0076 16.06183 13.22891 11.82893 10.66618 10.09346 -9999 -9999 -9999 -9999 -9999 -9999 -9999 -9999 -9999 -9999 -9999 -9999 -9999 -9999 -9999 -9999 -9999
-9999 -9999 -9999 -9999 -9999 -9999 -9999 -9999 -9999 -9999 -9999 -9999 84.05682 83.28592 80.47981 77.07067 73.72638 70.21404 67.1634 63.60583 57.2748 51.7382 50.06107 48.29581 43.99097 40.06382 38.34817 38.30965 38.45661 38.99969 39.28593 38.90652 38.0721 38.40812 42.95795 47.96 52.15515 54.21091 57.27386 59.5839 59.70588 59.78579 59.66917 58.38934 56.50928 53.18044 49.15873 44.17136 41.27736 47.65573 53.17828 56.71085 60.34855 62.51366 63.93958 64.9511 65.21692 64.92942 66.10311 67.55759 67.96657 67.98412 67.19025 65.63331 63.39986 60.15998 55.59155 51.5739 46.90416 42.54677 37.63876 32.62045 27.88118 30.76161 35.09834 38.22054 39.60985 39.9509 39.51141 36.77927 32.70463 28.93479 21.32775 15.10429 12.91418 11.1613 10.34324 -9999 -9999 -9999 -9999 -9999 -9999 -9999 -9999 -9999 -9999 -9999 -9999 -9999 -9999 -9999 -9999 -9999
-9999 -9999 -9999 -9999 -9999 -9999 -9999 -9999 -9999 80.80705 81.22879 81.6943 81.14458 79.53855 76.49616 74.08376 71.45035 67.91879 65.01028 61.38496 56.23391 51.4393 47.07808 44.09043 40.38736 38.32303 38.83891 40.22484 42.97271 45.55067 46.44138 45.71812 42.28777 39.98695 44.02174 49.4786 53.96152 56.276 60.4136 63.06813 63.67959 63.78562 63.47298 62.3158 58.62475 55.33024 51.09217 45.60521 43.23776 49.73736 55.01705 59.97988 63.25911 65.30152 67.63223 69.15411 69.94958 69.78363 69.73277 70.44473 70.29777 69.30642 68.24085 65.89473 63.05044 58.89708 54.2809 49.35348 44.70377 40.02621 33.92157 31.92845 33.75048 37.63813 40.14926 41.91794 43.1375 43.088 41.62978 39.9322 36.54711 32.35666 28.93102 24.00979 15.07286 12.29898 10.77847 10.10262 -9999 -9999 -9999 -9999 -9999 -9999 -9999 -9999 -9999 -9999 -9999 -9999 -9999 -9999 -9999 -9999
-9999 -9999 -9999 -9999 -9999 87.95181 86.71551 83.76016 81.55447 80.00732 79.01925 78.83915 77.79567 75.44091 73.69362 71.55976 68.58617 65.36801 62.57526 58.31083 53.98605 49.03274 44.16388 40.67426 40.57156 43.29726 45.3964 46.76628 48.68301 51.10657 51.88702 51.54554 47.24636 42.97267 44.35842 50.62125 55.19775 59.26939 62.92872 65.90266 67.36724 67.18249 66.43235 65.30428 61.39796 57.21495 52.83236 47.13688 44.74191 51.60091 57.23327 62.4765 65.55252 68.16947 70.61131 72.90129 74.21059 74.25879 74.00203 73.60346 71.96913 70.18974 68.02946 64.63913 61.17206 56.88998 52.01958 46.67703 42.10025 36.00802 32.74878 35.64886 39.7228 42.29531 44.70493 45.91599 46.6484 46.10406 44.1148 41.59122 39.34885 34.72071 31.17664 28.57206 20.48022 13.8677 11.80275 10.25496 9.455642 8.634226 -9999 -9999 -9999 -9999 -9999 -9999 -9999 -9999 -9999 -9999 -9999 -9999 -9999 -9999
-9999 -9999 -9999 -9999 -9999 86.48164 83.89566 81.01334 80.05399 78.23901 75.90208 74.68162 73.189 72.12595 70.61704 68.39827 65.56846 62.49198 58.31187 54.67789 49.81871 45.75651 41.75087 41.29747 44.90349 47.37172 49.91802 51.73925 53.48189 54.73791 55.11011 54.59266 52.17759 46.04631 44.5831 51.28629 56.87725 62.21595 65.55689 68.45557 70.17004 70.48218 69.50085 67.64786 64.09483 59.27792 54.72812 49.48363 47.40494 53.46545 59.3917 64.16593 68.28763 71.12562 73.66789 75.45846 76.83527 76.86404 76.21062 75.03764 72.49955 70.27571 66.65975 62.48734 57.43082 53.5202 49.29706 43.9185 38.924 34.46915 38.00764 41.49218 44.01684 46.42663 48.03317 49.40375 50.38821 49.64528 47.07157 44.11955 40.78812 36.81766 32.78018 29.40813 24.86557 15.29572 12.31216 10.71191 9.77219 8.910606 8.069228 7.319931 6.970732 -9999 -9999 -9999 -9999 -9999 -9999 -9999 -9999 -9999 -9999 -9999
-9999 -9999 -9999 -9999 -9999 85.52962 81.90985 80.14645 77.91845 75.10388 72.02597 70.34196 69.75598 69.10363 67.41021 65.44275 62.2356 58.19092 54.69879 50.17934 46.44204 44.0519 44.34213 46.77555 49.23676 52.03468 54.42174 56.74602 58.16764 59.19775 59.13672 57.90276 55.28833 49.77795 45.99912 51.56893 58.16008 63.82624 67.7049 70.65183 73.395 74.01793 73.13926 70.01377 65.84013 61.49075 56.33019 51.20627 49.6401 55.10091 60.98294 66.3035 70.69447 73.83311 75.75935 78.2424 79.32217 79.03428 77.51611 75.35586 71.96185 69.11694 64.98637 60.27094 54.70756 50.68676 44.75261 39.68941 36.31202 39.89162 43.85886 47.34575 49.16922 50.18867 51.49157 52.65813 52.82922 51.89296 49.86531 46.35682 42.35177 38.76113 34.10412 30.38797 26.58632 21.47328 13.73892 11.4461 9.804247 8.433215 7.475566 7.168946 6.710467 6.613388 -9999 -9999 -9999 -9999 -9999 -9999 -9999 -9999 -9999 -9999
-9999 -9999 -9999 -9999 -9999 83.96705 80.89274 79.20537 75.80109 73.02068 68.8629 66.46479 66.04148 65.51889 63.92388 61.17849 58.04728 54.38853 50.84397 47.2256 44.25658 44.67402 48.33371 51.51905 54.34809 56.68897 59.34423 61.69787 63.09376 63.65631 63.47459 62.00446 58.13736 53.80809 47.99112 52.1562 58.04675 64.08214 68.59425 72.44817 75.48842 76.62471 75.60783 72.1363 67.29163 62.91869 57.84364 52.50253 52.05884 57.54524 63.07428 67.61279 72.27016 75.64772 78.69473 80.47894 80.3039 79.17286 76.49931 73.40563 70.36066 67.2703 63.39129 58.10625 52.63792 47.25447 40.40494 38.18932 42.25312 47.46045 50.6955 52.47984 53.87342 54.94374 55.7567 56.19081 55.83609 53.81686 51.65388 47.8661 44.07984 40.16289 35.5021 31.52703 28.61041 25.29975 17.68023 11.74765 9.582926 8.148515 7.133394 6.875017 6.583603 6.292854 6.348648 -9999 -9999 -9999 -9999 -9999 -9999 -9999 -9999 -9999
-9999 -9999 -9999 -9999 88.58257 84.15837 81.22767 77.08759 73.30814 70.88284 67.17039 63.47488 62.79595 61.75975 60.05123 57.6249 54.34018 51.11636 47.70205 45.22826 45.53848 48.50074 52.6189 55.79277 58.66201 61.22702 63.76234 65.67081 66.58208 66.88024 66.56988 65.03479 61.82162 57.26215 50.94643 52.39562 58.40077 64.47279 68.70808 73.04539 77.83321 78.69561 77.23815 73.80965 67.97565 63.38588 59.49029 54.43184 54.03902 59.87102 65.95737 69.82269 73.95322 77.71202 80.8453 81.76244 81.05537 78.60464 74.81292 71.62408 68.33912 64.44976 61.00905 55.42529 49.91795 42.39589 39.85641 43.47457 49.6301 52.9859 55.78942 57.15818 57.90063 58.39619 58.78448 58.85736 58.22165 55.41638 52.53878 49.57791 45.6803 41.36364 37.26526 32.87953 29.61928 26.42331 21.16697 12.98895 10.10423 8.444192 7.191599 6.727701 6.408987 6.061151 6.006546 -9999 -9999 -9999 -9999 -9999 -9999 -9999 -9999 -9999
-9999 -9999 -9999 -9999 88.20246 85.07977 81.30888 77.98022 74.31714 69.46262 65.3922 61.52207 59.39803 58.12404 56.22017 53.74429 51.1165 47.88449 46.35363 46.57087 48.81802 53.41477 56.87523 59.88542 63.20255 66.06406 68.18279 69.41703 70.58418 70.83312 69.85495 68.23778 65.11974 59.7881 53.61885 53.60997 59.41792 66.04967 69.96465 75.5934 79.36324 80.02171 78.68459 74.73828 69.73161 65.87428 62.06574 57.20894 57.14129 61.55738 67.67666 72.31976 75.61581 79.80882 82.47135 82.54151 81.26729 78.48431 73.04179 69.592 65.22286 61.31924 57.18663 51.8156 45.28905 43.01343 48.51783 51.82437 53.56198 57.59809 60.03819 61.44302 62.2664 62.6859 62.54148 61.8877 60.36295 57.08659 53.51328 50.95111 47.03948 43.05133 39.5241 34.65793 30.86159 27.22893 23.1955 14.64797 11.00468 8.572069 7.281652 6.7162 6.28873 5.905586 5.662241 5.765647 -9999 -9999 -9999 -9999 -9999 -9999 -9999 -9999
-9999 -9999 -9999 -9999 88.12605 86.189 82.59605 79.7933 75.93282 71.80772 67.46964 63.64813 59.44851 55.07798 52.62859 50.50956 48.981 47.78661 48.25939 50.87078 55.13182 59.38566 62.19302 64.91422 67.18958 69.61272 72.10654 74.37427 75.28429 75.30639 74.34077 71.7728 67.4151 63.10641 56.02836 54.42577 61.48693 67.80727 72.93401 77.69559 80.43919 81.28382 80.32054 76.92049 73.28489 68.27885 63.49872 63.16043 63.12928 63.47977 68.75586 74.4546 78.00784 81.93247 83.53045 82.89764 80.75119 76.87564 71.42112 67.66219 62.1366 57.59376 52.19136 47.56697 46.72231 49.14922 53.98053 56.52648 58.74816 61.50899 63.18185 64.25294 64.89758 64.77491 64.14153 63.19912 61.22733 58.56144 54.67631 51.73198 48.51682 44.59142 40.73691 37.51353 32.75951 28.82869 24.77265 18.46861 12.01075 9.115602 7.486508 6.654813 6.175115 5.803402 5.419664 5.384986 5.501118 -9999 -9999 -9999 -9999 -9999 -9999 -9999
-9999 -9999 -9999 -9999 87.51295 85.81474 82.52106 79.71216 76.28558 72.72671 68.53831 65.10229 61.97166 55.98442 51.13234 49.45979 49.88932 51.42018 52.16448 55.01331 59.35108 63.66089 66.24603 68.54345 70.89011 74.20433 77.21323 78.63321 79.28427 78.8095 77.25787 74.64015 69.92906 64.98567 59.02579 56.43723 62.3862 68.40428 73.6501 78.38528 81.87049 82.8395 82.09248 79.092 74.74426 69.90543 67.86274 68.60407 68.5703 66.62228 71.90075 76.63768 80.12033 83.06236 84.26993 83.17629 79.85196 75.50677 69.65212 65.20259 61.08086 53.9182 52.27876 54.24747 55.56351 53.96015 57.94307 60.14621 62.78413 64.47982 65.87589 66.84234 67.22244 66.49465 65.19692 63.13229 60.92305 58.7929 55.48119 52.11131 49.25014 45.42962 41.33735 38.51684 34.71575 30.519 25.94309 22.2395 16.60305 9.056488 7.758833 6.677291 6.239473 5.815323 5.384777 5.061691 5.074835 -9999 -9999 -9999 -9999 -9999 -9999 -9999
-9999 -9999 -9999 -9999 -9999 84.70935 81.78026 78.5843 75.82031 72.48581 68.67818 65.6073 61.79443 56.59077 50.74262 50.11491 52.34955 54.17518 55.34258 56.37923 61.7258 65.88924 69.32478 72.07945 75.12345 79.15726 81.68182 82.9457 83.17059 82.30289 80.37364 76.38119 72.624 66.6091 60.92222 58.2056 63.32955 69.07482 74.71989 79.39533 83.40995 84.72037 83.95722 80.52931 76.84235 75.09947 73.77843 74.446 73.86121 72.33566 75.50027 79.05893 82.35529 84.6308 85.25652 83.16908 80.30264 75.06413 68.27445 63.9767 58.87788 58.16285 59.0323 61.65823 61.55171 58.17603 61.97789 63.5873 65.68201 67.47901 67.98377 68.17554 68.12318 66.8327 64.51013 61.94154 59.92223 57.64599 54.6474 51.50164 48.36171 44.74894 41.38581 38.42008 34.94347 31.04408 26.73165 23.09461 18.62428 9.418971 7.551915 6.886727 6.455341 5.988052 5.530588 5.089203 4.732733 -9999 -9999 -9999 -9999 -9999 -9999 -9999
-9999 -9999 -9999 -9999 -9999 82.41671 79.53621 76.71976 74.70927 71.62174 68.04516 64.8157 60.12142 54.87009 50.94412 53.06483 57.07383 58.9314 60.34949 60.15233 61.38437 67.04133 71.78364 75.58463 79.40565 83.18021 85.32599 86.30943 86.8 86.32957 83.18818 78.24842 74.34763 68.47773 61.56447 61.42317 65.96324 71.30003 76.23139 80.33739 84.90575 87.41817 87.60677 83.14259 80.82135 79.42103 78.64572 79.40462 77.77096 76.61345 78.86114 82.10101 84.50072 85.48683 85.44725 83.7315 80.47883 75.64881 69.48348 64.56268 64.57865 64.68297 65.48502 65.82467 64.42326 63.36626 64.5998 67.13026 68.24904 68.87832 68.55796 68.35744 67.30484 64.60886 62.25158 59.70238 57.95753 55.38285 52.36273 49.12943 45.54057 42.86385 40.32755 37.10411 33.85647 30.60325 26.93604 23.51436 18.90968 9.762506 7.3128 6.613947 6.180778 5.840948 5.500558 5.122623 4.713436 -9999 -9999 -9999 -9999 -9999 -9999 -9999
-9999 -9999 -9999 -9999 81.41473 78.88834 76.3608 74.72731 73.12346 70.08186 66.37474 62.74826 57.41274 52.46023 52.31284 55.97424 61.57618 63.87941 64.44336 64.81689 63.3384 66.93086 73.29538 78.06202 82.76322 86.28758 88.52052 90.00233 90.3553 89.32074 85.43124 79.93631 75.18977 71.1446 66.19447 68.29808 71.30191 74.44114 77.21114 81.35171 85.80005 88.64361 89.72238 87.82742 84.87604 84.61427 84.31782 84.35722 81.30524 80.18714 81.76995 83.40443 85.0696 85.48067 85.48972 84.09283 79.50095 76.02975 75.03106 72.81498 70.96851 69.56574 69.27988 69.07541 67.63377 67.965 68.63099 69.6738 69.55892 68.84566 68.14185 67.18378 65.07961 62.43473 58.99258 56.27066 55.0756 52.91556 50.41471 47.05703 43.30764 40.37683 37.18094 34.70603 32.34005 29.81179 26.21272 23.17914 19.49051 12.05095 7.255153 6.437548 5.867621 5.376806 5.072877 4.73899 4.490506 -9999 -9999 -9999 -9999 -9999 -9999 -9999
-9999 -9999 -9999 -9999 80.24769 77.45745 74.93297 73.14492 71.09671 67.82838 63.95073 59.52602 54.15561 53.26043 54.70414 58.00434 63.90364 67.33309 68.43665 68.86639 70.25082 69.86414 73.54369 79.1444 84.24077 88.06252 91.03979 92.38754 92.80333 91.7378 88.16855 82.85223 77.61896 74.88217 73.65335 74.29875 77.07053 78.61863 80.40906 83.18398 86.52113 89.28651 90.10916 89.48376 87.9981 87.36311 86.41833 85.76681 82.78098 80.70609 80.13512 81.5675 83.62071 84.9262 85.48081 84.58459 82.19567 80.22482 77.52968 76.19269 75.97892 74.34451 73.48066 72.75198 71.42927 71.32128 71.40388 70.88322 69.78755 68.23792 66.69866 64.51541 62.61839 59.56761 55.32542 52.89914 51.69887 49.90523 47.43451 44.30462 41.13327 38.27762 34.14998 31.95432 30.41881 27.5087 24.17748 21.55015 18.18691 13.65872 8.058252 6.667294 6.006406 5.251235 4.755141 4.462785 4.290999 -9999 -9999 -9999 -9999 -9999 -9999 -9999
-9999 -9999 -9999 85.91836 80.51393 77.31594 73.97092 71.23776 68.442 64.89446 61.1995 55.78564 55.14576 57.42642 58.64608 60.42147 64.35097 69.15295 72.15651 74.04202 74.94457 75.80231 77.10374 79.4384 84.14953 88.92023 92.32119 93.35658 93.8919 93.33998 89.74486 85.65274 81.1141 79.20848 78.73186 78.90043 80.69634 83.15472 86.24724 87.68137 87.90144 88.95564 90.05609 89.4554 88.12223 87.48169 86.3261 84.03822 80.72533 78.39944 76.38094 78.50264 80.93284 82.53501 83.79404 84.0233 83.84896 83.40642 81.42789 80.30715 79.83119 78.70399 76.85344 75.52998 73.85492 72.57845 71.80828 70.69485 69.00032 66.81155 64.16257 61.46921 59.1199 56.21647 52.90249 49.83776 47.57777 46.12808 43.97538 41.03315 38.65979 35.09239 31.61141 29.10151 25.62049 23.42853 20.84682 17.04531 15.00151 12.04672 9.104695 7.088647 6.069995 5.180445 4.547733 4.26478 4.097644 -9999 -9999 -9999 -9999 -9999 -9999 -9999
-9999 -9999 -9999 85.95219 81.17014 77.80084 73.23647 69.63999 66.00446 62.90142 57.75478 56.21689 59.58583 62.3732 62.94501 63.59467 65.57056 70.09927 74.71636 77.45168 79.32259 80.43209 81.49577 84.56648 86.46119 89.14326 92.35876 93.70844 94.26508 94.31161 91.58734 87.29767 85.51662 83.9875 83.88643 84.39536 85.51871 86.87607 88.51926 89.63642 89.56081 89.22475 88.98462 88.25308 86.15834 86.02218 84.61475 81.54832 79.05302 76.12186 73.2262 75.15845 77.54303 78.8976 80.68642 82.80919 83.65043 83.52573 83.28407 82.76567 81.98554 80.74549 78.77451 76.92867 74.76874 72.27763 70.95177 69.18484 67.12212 64.55774 61.5199 58.30803 55.27567 53.30615 50.53917 47.11583 44.0295 42.35104 40.47598 37.9329 34.78336 31.46906 28.84177 24.36965 20.5223 17.30904 15.30931 13.0502 11.54636 10.6437 8.380498 6.704454 5.430607 4.652294 4.196646 3.955643 3.878455 -9999 -9999 -9999 -9999 -9999 -9999 -9999
-9999 -9999 -9999 85.50354 81.34525 77.29594 72.86892 68.70555 64.39879 61.05954 57.8019 60.71313 64.03603 66.40075 67.80038 68.66451 70.74845 72.8154 75.9083 79.99522 82.95242 84.78168 86.32212 88.31087 90.14796 90.95271 93.17427 93.92539 94.2125 94.54768 93.71198 90.08797 88.41746 87.51504 86.79294 86.3598 86.18876 87.1327 88.32017 89.50036 89.96929 88.8945 87.26037 85.20629 82.2487 81.00342 80.1712 78.47359 75.86237 73.69754 70.06274 71.08649 74.68423 75.78186 78.00399 80.76437 82.55882 82.73494 83.14207 83.09791 82.86387 81.82179 79.52643 77.10465 74.71353 71.87408 68.59054 66.23875 64.51199 61.71339 58.87848 55.46095 51.6171 49.85167 47.35208 44.54681 41.03891 38.3396 36.5389 33.72021 30.77671 28.12519 24.1621 19.99202 16.56034 14.23662 12.59693 11.54531 9.995155 8.264891 6.785488 5.817281 4.765803 4.211993 3.833114 3.671047 3.674718 -9999 -9999 -9999 -9999 -9999 -9999 -9999
-9999 -9999 88.23008 84.49876 79.893 76.3945 72.11539 68.02782 63.57626 59.88382 60.25871 64.35774 67.03612 70.10218 73.13859 74.71151 75.80462 76.31578 78.28519 82.10649 85.96915 87.76961 89.70686 91.53431 92.52223 92.35943 92.23239 92.22408 91.62391 93.59741 93.16518 91.34022 89.68134 88.41364 87.14728 86.08514 85.07359 84.61651 86.22683 87.50966 88.62354 88.06763 86.12164 81.85658 77.66447 75.96473 76.06998 75.0886 73.69026 70.16143 65.34711 66.1881 70.00517 72.05327 75.72523 77.33069 78.85197 80.97681 82.6953 83.00653 82.95311 81.94663 79.42302 76.20437 73.27709 70.07117 66.33125 62.49475 60.26378 58.07699 55.90366 52.00091 48.36308 44.51598 43.06716 40.86794 38.25514 33.76579 30.96744 28.43936 25.34985 21.42381 18.55911 17.76871 17.79978 17.54092 16.61994 14.97099 14.05906 10.10678 6.922 5.304721 4.510502 3.952008 3.599348 3.470631 3.507547 -9999 -9999 -9999 -9999 -9999 -9999 -9999
-9999 -9999 87.37979 83.32605 79.59582 75.807 71.48499 67.16962 62.75005 60.75907 63.87144 67.69116 71.18553 74.02674 76.21433 78.23552 79.82955 80.69599 81.62316 84.98901 88.59816 91.24807 93.13418 94.10721 93.97332 92.14905 88.16726 87.00465 87.3155 89.09439 89.0738 88.65664 87.89735 86.79364 85.86658 84.58161 82.57004 80.78444 81.87857 84.33942 86.45223 86.52795 84.70208 80.29537 74.85917 71.40846 72.67151 72.29816 70.36301 67.26279 62.9591 62.07783 64.99189 68.82511 72.37395 74.42065 76.19118 78.82523 81.63483 82.74595 82.61668 81.38939 78.64981 75.29971 71.98217 68.27445 64.64066 61.66613 57.40033 53.93932 51.13167 46.84679 44.10595 41.33253 38.77679 37.04691 33.75293 29.89041 26.48162 24.41646 23.88509 24.42373 25.34831 25.6263 25.43235 24.96125 24.22891 22.47312 20.29501 14.61176 7.632878 5.44833 4.334417 3.678039 3.337579 3.297482 3.379704 -9999 -9999 -9999 -9999 -9999 -9999 -9999
-9999 -9999 86.6573 82.81755 79.52705 75.76847 71.57095 66.99057 62.81308 63.30267 67.9141 72.11854 74.36517 76.46474 79.11965 81.46819 84.29884 85.38003 85.96338 86.83727 90.30566 92.75023 94.61156 95.48348 94.65025 92.47144 87.13298 82.72483 81.91156 82.85754 83.94131 84.1433 83.87 83.54353 82.70561 81.15762 79.31762 76.1986 78.68714 80.67799 83.12081 84.09171 82.49271 79.47776 74.76307 68.51048 66.65011 67.45926 66.11507 63.44492 59.69269 58.22196 62.79263 66.3969 68.74118 70.48728 74.07146 77.61208 80.07779 81.89156 81.89748 79.74086 77.3876 74.77314 71.44014 67.99213 63.48648 59.00398 55.32398 51.15167 46.51255 42.93583 40.40879 38.69391 35.65969 33.87077 33.20981 33.03541 31.75782 30.10586 30.9241 31.05715 30.68271 30.92868 30.82254 30.16309 29.0439 27.10161 24.22062 17.15561 8.179033 5.917961 4.21909 3.456788 3.209317 3.187364 3.259343 -9999 -9999 -9999 -9999 -9999 -9999 -9999
-9999 -9999 -9999 81.78033 78.40909 75.2292 71.38393 66.95904 63.97667 66.75411 71.80129 75.00921 77.43759 79.80001 82.52093 85.50228 87.92136 88.69199 89.43097 91.12047 92.33759 93.64597 95.38756 95.79532 94.65582 91.81377 87.03552 81.01642 76.9451 78.24727 79.85017 80.20546 79.80665 79.15384 78.35941 77.3802 76.32074 73.23752 75.28989 77.7117 79.58037 81.44875 80.99891 79.17303 74.68036 69.5347 63.24065 62.82741 62.24994 58.66569 54.78461 55.30616 60.56071 63.91206 65.26974 67.18514 71.38634 76.19377 78.42971 80.07213 80.42143 78.47635 76.13116 73.83282 69.64377 66.55974 62.74918 59.02332 55.11682 51.6651 49.49475 46.18587 43.66618 42.40299 41.00986 40.36471 40.43557 40.02918 39.66781 37.48708 37.09065 37.21471 34.91921 33.76593 33.11473 32.29219 30.71505 28.91836 26.09005 20.81613 13.14686 5.853358 4.298095 3.348032 3.220714 -9999 -9999 -9999 -9999 -9999 -9999 -9999 -9999 -9999
-9999 -9999 -9999 80.26674 77.96581 75.26752 71.87642 68.59299 66.68129 71.21969 75.13908 77.56876 80.49963 84.04406 86.5877 88.94728 90.8528 92.44326 93.35421 93.53592 92.9453 93.50467 94.95191 94.88709 93.8483 89.65875 85.37909 80.87575 75.18551 72.55951 74.66075 75.12506 75.09447 75.0118 74.65334 74.08669 72.93782 69.6459 71.83273 74.58733 76.17822 78.89564 79.4993 78.07691 74.08865 69.22524 64.05753 58.28489 56.75658 55.33569 51.18407 52.40996 57.12518 59.82865 61.21964 65.98027 69.61263 73.66975 76.52994 78.00433 78.50011 77.14384 75.15579 72.9546 69.80143 67.72116 64.18093 62.68461 59.20817 56.53554 53.69625 52.09998 51.37791 48.47131 45.99632 45.03014 44.79012 43.53913 42.74621 42.04023 41.37829 40.853 39.52504 36.94417 35.40059 34.15981 32.35256 29.99518 27.03757 22.77705 17.67719 6.661945 4.322846 3.445845 3.321988 -9999 -9999 -9999 -9999 -9999 -9999 -9999 -9999 -9999
-9999 -9999 -9999 79.61504 78.51449 76.6469 75.02977 71.29579 69.44982 74.46173 77.71194 81.02922 84.40602 87.15269 89.57552 92.07148 94.0653 94.72604 94.57649 92.34824 90.63619 90.63615 92.10626 93.24531 92.12895 87.90119 83.83078 79.6649 73.85604 68.30454 68.67696 70.70381 71.21127 71.25636 70.90321 70.12791 68.96555 65.64855 67.28107 70.59523 74.28176 76.37821 77.64532 76.93493 74.20968 69.43447 64.38344 59.27749 53.21701 50.98464 48.05289 50.18986 53.12416 55.57785 59.60869 64.47175 67.78084 71.02172 73.58648 75.64884 76.06813 75.09975 74.22464 71.73889 69.21154 67.63373 64.81448 63.02874 61.46421 59.18388 56.46066 53.88258 52.79013 52.12827 50.79814 49.40085 48.00266 46.61079 45.32348 44.61365 43.57752 42.54695 41.30317 39.79174 37.55045 35.47567 33.13815 30.24706 27.27773 22.54905 17.80741 6.994294 4.224124 3.604592 3.332336 -9999 -9999 -9999 -9999 -9999 -9999 -9999 -9999 -9999
-9999 -9999 -9999 -9999 80.38141 79.42085 78.72595 75.00068 73.20141 76.08107 80.20696 84.04647 87.1413 89.9286 92.34758 95.01675 96.30175 96.03194 94.32888 91.22129 87.36182 85.93835 87.64034 89.5471 89.38943 87.2898 84.49265 78.95143 74.20548 69.09072 64.13216 65.03088 66.2053 66.83476 66.9512 66.34779 65.45303 61.95684 63.54052 68.22893 72.16978 74.52074 75.82172 76.01423 74.49085 70.27889 65.14239 60.06161 54.36781 49.6573 45.25482 46.48511 49.77127 53.42575 57.83725 61.91926 65.3334 68.52598 70.63302 72.87077 74.42124 73.49457 71.34254 69.02738 67.04629 64.99147 63.32057 62.14692 60.84629 59.41495 58.03682 56.23318 54.91378 53.77263 52.88012 51.8875 50.81208 48.87483 47.76808 46.65249 44.62819 43.1827 42.02624 40.4908 38.54502 36.13807 33.44875 30.08097 26.59947 21.90998 17.60426 7.457702 4.372487 3.579002 3.233299 -9999 -9999 -9999 -9999 -9999 -9999 -9999 -9999 -9999
-9999 -9999 -9999 -9999 83.17758 82.72469 81.52464 77.1393 75.83856 79.41648 82.82657 85.97083 89.46732 92.03536 94.52315 96.7065 96.98991 96.06261 94.03243 90.176 85.95062 81.9489 82.36522 84.40417 85.96037 85.95122 84.36935 80.65781 76.25097 70.65511 65.14596 60.93948 60.50219 61.79918 62.45996 62.61504 62.09818 58.47548 62.31653 65.66236 69.37173 71.61905 74.07005 74.6396 73.93204 70.42886 66.20981 62.00914 56.64981 51.70265 44.81921 44.05802 47.39123 52.3993 55.91195 59.492 63.60174 66.10144 67.73899 69.61437 71.74281 70.8184 67.91393 64.62368 61.76705 61.68459 60.27066 59.29403 58.96476 58.39123 57.56244 57.09347 56.31683 55.24152 53.91023 53.30011 51.59476 49.59739 48.33371 47.03623 44.73269 43.04888 41.71735 40.30014 38.15394 35.49308 32.42465 29.07088 25.19575 21.07007 17.74291 9.186079 4.745667 3.592041 3.162368 3.066827 -9999 -9999 -9999 -9999 -9999 -9999 -9999 -9999
-9999 -9999 -9999 -9999 86.3868 85.79432 84.13869 79.15426 79.20621 83.19779 86.3475 89.167 91.44597 93.30079 95.72064 96.94425 96.611 95.10209 92.64371 88.59501 84.45758 79.70444 77.39131 80.0006 82.23343 83.58775 83.60414 81.52842 77.10276 72.46225 68.05267 63.13085 57.96432 55.75991 57.55772 58.48219 57.94149 55.3143 59.01003 62.26913 65.29949 68.41694 71.65076 73.32918 72.81016 69.91973 66.61462 62.70037 58.00935 52.55241 46.16304 42.3624 46.00761 50.45491 54.56448 58.21885 62.14436 64.20813 65.66229 67.24196 68.87 68.72695 66.41312 63.53347 57.87979 54.21192 54.55126 54.64985 55.92229 56.19528 55.60484 55.45501 55.54894 54.89732 53.94296 53.35702 51.12727 48.86238 47.38372 45.65695 43.63066 42.02984 40.6169 39.08624 36.45765 33.83186 30.85991 27.99931 24.59468 21.49743 18.35943 11.13815 5.255605 3.645808 3.156425 3.069904 2.903292 -9999 -9999 -9999 -9999 -9999 -9999 -9999
-9999 -9999 -9999 -9999 90.15985 88.81396 87.22877 83.36702 83.66644 86.75085 89.31669 91.42646 93.29897 94.94984 95.9556 96.4053 94.89066 92.88454 90.20246 86.30835 82.50037 77.83067 72.14085 75.25675 77.61469 79.64574 81.77666 81.40624 79.06176 74.69532 70.59908 65.77908 61.89071 55.71479 52.39821 53.11539 52.85159 52.79188 55.35884 58.56012 62.57337 65.3872 67.8783 69.27978 70.02243 69.01816 66.16628 62.61951 57.91999 52.62083 46.44135 40.81451 43.65537 48.14563 52.68246 56.64352 59.84448 62.71782 64.20173 65.88889 67.0801 67.24895 65.22878 62.97295 57.26794 51.85014 48.5758 51.07081 52.367 52.63247 52.35046 53.07476 53.63962 53.26214 52.60366 51.39201 49.48688 47.41633 45.4207 42.98214 41.40664 40.28014 38.76896 36.71027 34.10748 31.99172 29.82056 27.20215 24.62579 21.79706 18.45158 11.02391 5.439975 3.835771 3.346039 3.095668 2.793558 2.500571 -9999 -9999 -9999 -9999 -9999 -9999
-9999 -9999 -9999 92.8644 92.24203 90.31269 88.84391 87.67899 87.40024 88.8736 91.27195 93.64446 95.74081 96.1515 95.759 93.83405 92.11304 90.08123 87.01814 83.84473 80.14683 75.50523 68.01338 69.9372 73.43731 75.84007 79.11091 80.23269 79.60012 77.56589 73.48125 69.20749 64.66559 60.21641 53.93726 49.69747 47.9614 50.44345 52.66306 56.47771 59.89675 62.58389 64.06535 65.82142 67.49358 67.54347 64.98396 61.17877 56.7621 52.05909 45.6838 39.21098 40.79102 46.29819 51.34796 54.82198 57.69405 60.79367 63.07076 64.6006 65.27097 65.19734 63.97422 61.49917 55.70699 51.21523 44.2633 45.48415 47.61441 48.19419 48.1535 49.87492 51.34135 51.24603 50.32759 48.87675 47.44528 45.72543 42.88951 40.11689 38.73666 37.314 35.89294 34.35299 31.68619 29.87552 28.21954 25.25836 22.99047 20.29319 16.56275 9.364855 5.572712 4.095477 3.582463 3.081859 2.663792 2.321795 2.015349 -9999 -9999 -9999 -9999 -9999
-9999 -9999 -9999 96.38869 94.39128 92.06054 89.44209 88.51131 89.14218 90.60997 92.94243 95.96497 97.09209 97.07035 94.57369 91.06513 88.11385 86.40147 84.12107 80.77024 77.33142 73.33135 65.2107 64.44099 68.93604 72.34483 75.81532 78.16654 78.22426 77.45175 75.09853 70.49542 67.28915 63.0644 57.36758 52.27778 47.3561 46.40216 50.13784 52.58363 56.06902 59.00475 61.5407 63.32557 64.33464 64.6428 63.26457 59.83169 55.31384 51.03152 44.46997 38.28605 39.40031 44.20593 49.09951 52.5113 56.00197 58.80374 61.02349 62.09584 62.98309 63.18556 62.60784 59.73017 54.96178 51.70422 45.23374 39.31026 42.43285 44.06302 44.24379 46.00611 48.02157 48.0768 47.2449 46.23254 44.99767 43.05982 40.41844 37.04485 34.27454 33.70601 33.55898 31.82211 28.79744 26.59971 24.21845 21.83747 20.16468 17.46135 13.70165 8.761404 5.481716 3.838813 3.352157 2.968175 2.514066 2.075758 1.680064 -9999 -9999 -9999 -9999 -9999
-9999 -9999 -9999 -9999 -9999 -9999 -9999 -9999 -9999 -9999 -9999 -9999 -9999 96.47595 91.38549 87.55328 83.85067 82.45933 80.1038 77.06011 74.40992 70.12445 64.46158 61.53098 66.61526 69.53739 72.28553 74.05415 75.56334 75.63154 74.15102 70.68262 68.35307 64.99965 59.97992 54.47229 49.83398 45.28226 45.14719 48.71955 53.02456 56.35165 58.89232 60.60207 61.32976 61.63306 60.39798 57.23907 53.49751 49.14992 42.84238 37.28078 38.42763 42.68626 47.16222 51.21211 53.81955 56.70421 58.86282 60.08419 60.89635 60.96354 60.16058 57.51706 53.40302 49.92043 44.4792 39.45918 37.08775 40.22826 40.79934 41.60873 44.00712 44.31294 44.10099 43.62691 42.01089 39.65232 37.39178 34.43954 30.63996 29.12801 30.59787 29.26406 25.98224 22.23376 20.21719 18.13161 15.79545 11.9623 8.812374 7.225683 4.789016 3.619029 3.118356 2.679348 2.206117 1.923829 -9999 -9999 -9999 -9999 -9999 -9999
-9999 -9999 -9999 -9999 -9999 -9999 -9999 -9999 -9999 -9999 -9999 -9999 97.54914 95.23347 90.08183 86.28814 81.21208 78.75948 75.42242 72.98907 70.70483 66.85402 63.21021 59.15311 62.52261 65.66599 68.84364 69.89903 71.30149 72.40038 71.78046 69.76042 68.01999 65.19007 61.29753 56.00924 52.01196 47.22808 43.70858 45.57627 50.55241 53.11584 55.25326 56.41151 57.09455 57.18684 56.44223 54.23416 51.53943 47.03738 41.38385 35.69382 36.77711 41.66033 45.57459 49.24109 51.76872 54.09946 56.3326 57.923 58.86163 58.77035 57.70706 55.84675 52.63754 49.58068 44.84329 40.79053 34.92784 34.27776 36.77102 37.92374 40.49108 41.18752 41.04111 40.58966 38.83147 35.09281 32.36008 30.58633 27.39854 23.8997 27.15646 25.95697 22.19464 18.90178 16.32828 11.73909 9.546149 7.936247 6.874038 5.486121 4.147949 3.426863 2.907382 2.14903 1.691355 1.73806 1.551942 -9999 -9999 -9999 -9999 -9999
-9999 -9999 -9999 -9999 -9999 -9999 -9999 -9999 -9999 -9999 -9999 -9999 -9999 95.20756 90.25235 85.73188 80.98754 75.20372 69.77874 67.87963 66.16719 63.75692 60.76116 57.57272 58.52117 60.64929 64.51702 66.70538 68.25564 69.30936 69.00238 67.92756 66.48325 64.06623 60.42843 56.20332 52.76563 48.2016 43.08782 41.93039 45.53886 49.11741 52.23149 52.84949 52.57828 52.15462 51.26235 50.29722 48.6993 44.01663 39.27921 34.64597 36.15527 40.842 43.95668 47.0234 49.98574 52.12341 53.954 55.32349 56.09167 56.3842 55.63078 54.17336 52.34833 49.49852 44.78012 40.73013 35.42051 31.07802 32.4179 34.28136 36.93316 37.71406 37.12173 36.11083 34.69978 31.56936 26.62292 24.98355 23.09321 18.63487 19.69855 20.2174 18.55855 11.55353 9.349998 8.066676 6.930844 5.860315 5.017504 4.275477 4.045102 3.425709 2.625023 1.797559 1.464231 1.433153 1.290768 1.189493 -9999 -9999 -9999 -9999
-9999 -9999 -9999 -9999 -9999 -9999 -9999 -9999 -9999 -9999 -9999 -9999 -9999 96.12749 91.54134 86.01557 81.08924 74.86714 70.74876 66.17925 62.35181 60.31209 58.1819 56.38927 55.65693 57.98998 60.5218 61.68186 63.31645 65.253 65.47421 64.96952 63.84404 61.45065 58.43346 54.92259 51.86538 47.14925 42.94436 40.53911 41.43269 45.1847 47.86736 48.09236 46.95569 46.10204 45.89442 45.44056 43.23 40.28427 36.98797 33.19992 35.31627 40.27294 42.72031 45.46363 47.71645 50.17623 51.94934 53.00383 53.8342 54.05125 53.3116 52.48186 51.5689 48.73377 45.24685 41.46758 37.89983 30.94266 27.92824 29.78295 33.22799 34.02802 33.37905 32.44115 30.58899 27.27885 22.14525 20.52433 18.69154 15.44474 13.2495 13.36591 10.57375 8.742562 7.397678 5.878598 4.94874 4.47509 4.073977 3.684716 3.50094 3.321918 2.596078 1.845522 1.492023 1.198373 1.008723 0.883642 0.761428 0.683086 -9999 -9999
-9999 -9999 -9999 -9999 -9999 -9999 -9999 -9999 -9999 -9999 -9999 -9999 -9999 96.3772 93.38609 87.98649 84.95874 80.72375 76.11134 70.50787 67.53809 64.3028 60.63947 56.91137 53.99822 52.93769 56.8761 58.3066 59.07897 60.04266 60.58536 60.49216 60.02333 58.06157 55.25714 52.37644 49.43909 45.96507 42.27563 39.33057 38.18925 40.83993 41.64443 40.30189 39.99932 40.12031 40.22396 39.65656 38.77812 37.24055 34.82936 31.61872 34.18669 39.37248 41.29481 43.68044 45.67939 47.58938 49.76826 51.12978 51.55575 51.70125 51.4341 50.81212 49.51656 46.9474 44.21561 41.68197 38.07189 31.33863 26.78282 24.95551 28.42618 30.36882 30.00864 29.39568 26.56479 21.12184 16.761 14.28846 12.51076 10.42878 9.484657 8.796503 7.938659 6.982653 5.896147 4.733257 4.144873 3.805323 3.414942 3.096891 2.988835 2.912241 2.603874 2.020034 1.546138 1.211377 0.925767 0.680919 0.525669 0.43628 -9999 -9999
-9999 -9999 -9999 -9999 -9999 -9999 -9999 -9999 -9999 -9999 -9999 -9999 -9999 -9999 94.614 91.56661 86.99438 84.37155 80.76664 76.59769 73.5727 69.55134 64.49139 59.91398 56.63646 51.33443 50.36259 54.67407 56.68037 57.20963 57.38541 57.07799 55.87769 53.90691 51.74582 49.13614 47.07307 43.03745 39.99187 37.66239 36.14296 35.79345 35.3027 34.85229 34.93438 35.15776 35.40212 35.4734 34.87607 33.16171 31.52237 29.54125 32.00208 36.05623 39.43985 41.1032 42.6141 44.43911 46.00569 47.30244 47.92557 48.15028 47.80706 46.68459 44.57387 42.1235 41.06562 39.75748 37.3642 32.65369 27.57519 22.18741 23.23123 25.6444 25.73369 24.40485 20.31186 16.14541 12.39228 10.32282 9.388278 8.802865 8.072235 7.268508 6.583743 5.821511 4.8439 4.23552 3.825563 3.455599 3.051655 2.696793 2.439954 2.160427 1.919808 1.869014 1.552955 1.208685 0.878678 0.590237 0.38227 -9999 -9999 -9999
-9999 -9999 -9999 -9999 -9999 -9999 -9999 -9999 -9999 -9999 -9999 -9999 -9999 -9999 -9999 92.47549 89.86851 86.85569 83.47333 80.01508 76.56276 72.80096 68.22432 62.43318 58.55309 53.784 49.81322 49.30066 52.16515 53.46168 53.72209 53.112 51.15694 48.66676 46.35674 44.32727 42.38058 39.48064 37.56821 36.13443 35.36765 34.6537 33.81099 33.277 33.11001 33.04488 32.88659 32.49009 31.87021 30.35997 29.30982 28.0716 27.99403 30.51578 32.65768 35.07813 37.82935 39.74294 41.26891 42.39865 42.86898 42.84332 42.03606 40.87143 39.47771 37.60143 36.85241 36.24322 34.84069 32.26377 28.70487 20.75667 19.22483 19.2595 16.89961 16.14912 13.62114 11.09935 10.55701 9.45316 8.93312 8.067831 7.180412 6.644116 6.11226 5.463223 4.795938 4.339137 3.84549 3.481468 3.171492 2.785972 2.603699 2.331513 1.90544 1.580363 1.308631 1.094302 0.794464 0.465156 0.230096 -9999 -9999 -9999
-9999 -9999 -9999 -9999 -9999 -9999 -9999 -9999 -9999 -9999 -9999 -9999 -9999 -9999 -9999 89.91815 89.05936 87.54497 84.75951 81.75558 78.7456 74.79362 70.86346 65.20776 60.48755 56.69757 52.07502 47.6624 47.37998 48.844 48.7753 47.25339 45.7858 44.06816 42.2986 40.37006 38.53516 37.47285 37.22398 37.42261 36.96836 36.227 34.84932 33.47333 32.37046 31.53566 30.71414 29.9526 29.41204 28.69508 28.10953 27.3323 26.18409 26.03104 27.47444 28.76175 30.04776 31.84986 34.63105 36.79776 37.78957 38.06144 37.6562 36.5991 35.2043 33.4169 32.88638 32.86967 31.97921 30.18812 27.49902 18.93086 16.18827 15.03989 12.22501 11.89598 11.13655 10.28957 9.571983 9.060998 8.786085 7.98414 7.175553 6.658904 5.942222 5.217955 4.981287 4.692321 4.166687 3.994238 3.760401 3.511148 3.818327 2.643411 1.520654 1.174181 0.961005 0.842077 0.59604 0.263446 0.062401 -9999 -9999 -9999
-9999 -9999 -9999 -9999 -9999 -9999 -9999 -9999 -9999 -9999 -9999 -9999 -9999 -9999 -9999 87.59754 87.22118 86.02364 84.08829 81.49944 78.82537 75.20379 71.50317 66.50978 61.79436 58.04196 54.01353 50.40185 45.48796 43.99887 43.86575 43.02378 41.85012 41.11033 40.1172 38.91047 38.87352 39.5055 39.77083 40.23365 40.24725 39.54654 37.63757 35.53405 34.08528 33.56324 32.81639 31.62585 29.65822 28.83883 27.81224 26.78922 25.90785 25.03239 23.86884 24.95181 25.75707 26.19696 27.07826 30.07719 32.91061 33.8018 33.17049 32.03836 30.1748 28.41443 27.92422 27.79046 27.89009 26.90137 24.58188 18.12836 13.99142 12.57326 10.7748 10.68625 10.53869 9.644242 9.083615 8.825483 8.906587 8.241643 7.532618 6.793319 5.665247 5.737855 6.02794 5.523141 5.260674 5.148213 5.164119 5.588199 5.16307 2.436388 1.269058 0.821941 0.627433 0.531332 0.340355 0.11781 -9999 -9999 -9999 -9999
-9999 -9999 -9999 -9999 -9999 -9999 -9999 -9999 -9999 -9999 -9999 -9999 -9999 -9999 84.96819 83.57488 82.58322 82.1957 81.17111 79.55268 76.77164 73.99196 70.24519 66.41795 62.41955 58.46877 54.78171 51.47587 47.09028 43.38343 41.01154 40.81763 40.97847 41.56469 42.42001 43.12471 43.89959 44.28882 44.44435 44.99784 45.01179 43.58413 41.9852 39.92573 38.83944 38.57012 38.38945 38.02456 36.36177 32.72956 31.20236 29.61991 27.14241 25.80717 24.26687 22.79942 23.5153 23.78011 23.8336 24.31361 27.67957 29.17688 28.42475 26.72371 24.72934 22.61554 21.20025 20.76929 21.31394 21.14865 18.14769 14.81343 12.20687 10.33442 9.96065 9.52916 9.321926 8.734346 8.312189 7.709892 7.391106 7.788513 7.340837 6.109743 6.46866 7.381038 7.292349 7.261481 7.392435 7.545972 8.352671 10.56959 10.97731 4.528471 1.914075 1.033509 0.44509 0.354862 0.234536 -9999 -9999 -9999 -9999 -9999
-9999 -9999 -9999 -9999 -9999 -9999 -9999 -9999 -9999 -9999 -9999 -9999 -9999 -9999 81.24432 79.70985 78.93535 78.72228 77.83507 75.82661 73.82748 71.12586 68.35625 65.50309 62.27227 58.11716 54.56728 51.06078 46.898 42.97599 41.82775 43.87931 45.3927 46.95999 48.13571 48.48991 48.53713 49.3 50.68053 51.12685 49.87069 48.73703 46.57352 44.29605 43.70015 43.33306 42.85157 41.8863 40.87415 39.11016 35.63767 33.46008 29.54016 26.26446 24.67452 22.4906 21.55921 21.64727 21.75501 21.88834 22.56992 23.03567 22.37964 21.74536 20.34573 18.28431 17.21133 16.62302 15.48551 15.28904 14.3043 13.06076 11.89311 10.79084 10.57525 10.4307 9.637671 8.970245 8.785805 8.644888 7.894227 7.174399 8.034515 8.322328 8.642092 9.501892 10.12688 10.744 14.62277 13.9057 15.14595 16.28906 16.58033 14.71317 7.062358 3.207779 1.141041 0.551678 -9999 -9999 -9999 -9999 -9999 -9999
-9999 -9999 -9999 -9999 -9999 -9999 -9999 -9999 -9999 -9999 -9999 -9999 -9999 80.84631 78.6653 76.3457 75.42435 74.98072 73.78748 71.94899 69.95308 67.89669 65.81771 63.95126 61.16902 57.20782 53.07749 49.54865 45.26692 43.20049 45.47702 48.64673 50.75744 51.93246 52.37958 52.31427 52.49043 53.34321 54.64579 54.98034 54.31376 53.14705 51.64283 50.02388 48.6928 47.40633 46.49022 45.49677 44.06432 42.36653 40.24973 36.21983 32.36438 28.39675 25.86629 23.84789 21.39697 20.67483 20.26879 20.19251 19.99559 19.91029 19.81115 19.32194 17.93797 16.62571 15.82338 15.22919 14.53551 14.00306 13.07614 12.08329 11.44439 11.03541 11.02321 11.00007 10.28695 9.842037 9.752998 10.25339 10.8932 11.61782 11.74999 12.54512 14.19411 15.23989 16.15185 17.09404 19.50911 19.47345 19.53106 19.96511 20.24323 19.35281 17.40199 8.598184 3.077 -9999 -9999 -9999 -9999 -9999 -9999 -9999
-9999 -9999 -9999 -9999 -9999 -9999 -9999 -9999 -9999 -9999 -9999 -9999 83.75905 81.96142 79.0527 75.57372 72.30556 69.46432 68.84382 67.9831 66.35156 64.75172 63.25401 62.05137 58.92228 54.74756 51.02683 47.0908 44.34531 46.30885 50.27156 52.78846 54.47317 55.61113 55.92198 55.54988 55.47245 57.08176 58.29296 58.41172 57.9437 56.44772 55.49738 54.87239 53.96613 52.7924 50.80173 48.93485 46.49826 44.87346 42.72936 39.55818 35.90178 32.64849 28.91644 25.75208 23.03714 21.38732 20.83102 19.57997 19.1877 19.37406 18.83777 18.21719 17.71435 16.42036 15.50543 14.61403 13.83743 13.08079 12.54019 12.31716 11.76129 11.48337 11.67214 11.73318 11.07911 10.71093 10.71795 11.46306 12.98668 14.50748 15.37815 17.09904 19.17033 20.34535 20.43264 20.86843 23.38641 24.38755 24.78793 24.57604 24.33794 23.49702 22.85473 19.33767 -9999 -9999 -9999 -9999 -9999 -9999 -9999 -9999
-9999 -9999 -9999 -9999 -9999 -9999 -9999 -9999 -9999 -9999 -9999 85.95408 84.43333 82.0614 79.05414 75.59983 72.64274 66.70524 63.8562 63.59932 62.34299 61.32539 60.18928 58.76745 55.69559 51.57491 47.48433 46.4877 47.76669 50.88532 54.19969 56.85265 58.47992 59.50563 60.39536 60.80315 60.61179 61.83974 62.49926 62.43759 61.74601 61.09579 60.00956 58.17931 56.89865 55.85378 54.45939 52.62677 50.46907 46.60806 44.42659 41.32875 38.09839 34.48335 30.96388 27.34181 23.95892 22.37251 22.08603 20.48154 18.72261 18.25358 17.65624 16.96984 16.42865 16.21446 15.57325 14.38012 13.64023 13.05653 13.45271 13.1749 12.42609 12.20347 12.42714 12.54264 12.42308 12.44095 12.71121 13.23149 15.8367 19.26905 20.40883 21.97273 23.2492 24.436 24.66767 25.13125 26.56164 28.03682 28.78101 28.59895 28.37168 28.09198 26.51567 -9999 -9999 -9999 -9999 -9999 -9999 -9999 -9999 -9999
-9999 -9999 -9999 -9999 -9999 -9999 -9999 -9999 -9999 -9999 -9999 87.38919 85.0425 81.83326 77.67811 73.99759 69.88226 65.08733 61.54353 59.88437 58.09604 56.64418 55.71356 54.8201 52.19828 48.64222 48.58684 50.7092 51.83479 54.60559 58.31782 60.93763 62.54051 63.86522 64.98885 65.42947 64.98347 65.29166 66.32185 66.33517 66.05917 65.13781 63.73283 61.82456 59.73775 58.20882 56.62842 54.33382 51.75767 48.13889 45.03944 41.54011 37.72154 34.30873 30.45523 26.64428 23.87422 23.50751 23.16586 22.02377 20.79257 19.37815 18.55226 18.36181 17.83257 16.60365 15.5743 14.83647 14.17957 13.88822 14.38365 13.97597 13.24744 13.32197 13.75014 14.17537 14.86762 15.20692 15.98031 16.7733 20.29672 23.53418 25.51614 27.00096 27.12552 27.50321 27.89884 28.98356 30.42674 31.59586 32.08443 32.02134 31.70402 31.24306 -9999 -9999 -9999 -9999 -9999 -9999 -9999 -9999 -9999 -9999
-9999 -9999 -9999 -9999 -9999 -9999 -9999 -9999 -9999 -9999 -9999 88.45476 86.1655 82.43105 78.91022 75.52061 72.73192 68.42701 64.91886 62.97623 61.94705 59.19331 55.24795 52.53896 50.33724 50.1025 52.67288 54.4945 55.5853 58.45894 61.91556 63.98796 65.84163 67.59556 68.97565 69.56616 69.3455 69.54948 70.16877 69.82366 69.1424 68.23866 67.02081 65.04527 63.49553 60.97158 58.09681 55.13839 52.36528 48.52507 45.09118 41.32575 37.09355 33.39108 28.79401 26.05069 24.88273 25.31244 26.13977 26.66372 26.31893 25.47199 23.97427 21.91522 20.34916 19.51987 18.2855 16.65326 15.35333 15.16815 15.52172 15.1792 14.94442 15.39363 16.45801 17.94588 19.32578 20.30612 20.8872 22.55531 24.87969 27.5188 29.47004 30.42028 30.60993 30.76748 31.33084 32.77934 33.71357 34.92952 34.98612 34.73382 34.02679 33.35839 -9999 -9999 -9999 -9999 -9999 -9999 -9999 -9999 -9999 -9999
-9999 -9999 -9999 -9999 -9999 -9999 -9999 -9999 -9999 -9999 -9999 88.46151 87.82317 84.62594 81.75237 78.81331 75.52817 71.99206 68.54167 66.51597 64.88589 62.80878 59.62247 54.54633 51.32349 53.766 56.62646 58.7563 60.03438 61.66306 64.43766 67.15655 69.73253 72.01024 73.11079 73.1596 73.0715 74.28589 74.24048 73.57305 72.59097 70.85329 69.12282 67.49956 65.09959 62.45644 58.98563 55.3946 52.15651 47.82409 44.39852 40.43221 35.81057 31.67465 27.02351 25.69293 26.28303 28.67935 30.70634 31.77502 31.68605 30.79902 29.48486 27.66829 24.85903 22.67854 21.78172 20.02408 17.3312 17.04287 17.77591 18.84787 20.70168 22.27253 23.74344 25.11325 26.11016 26.33679 27.46727 28.73381 29.78134 31.32255 32.61126 33.52731 33.66133 34.41727 34.98077 36.34488 37.15424 37.65277 37.88459 37.52203 36.5024 -9999 -9999 -9999 -9999 -9999 -9999 -9999 -9999 -9999 -9999 -9999
-9999 -9999 -9999 -9999 -9999 -9999 -9999 -9999 -9999 -9999 -9999 -9999 88.5978 87.60387 84.63192 81.06931 77.71013 74.96649 73.04595 70.20114 67.55773 64.20239 61.14742 55.84644 54.16427 57.5746 60.85433 62.77158 63.47893 64.30374 66.66598 70.04991 73.34125 74.98454 76.27293 77.03714 77.05991 77.50171 76.9136 76.0996 75.14845 73.06339 69.94462 68.11993 65.26754 62.40648 58.77346 54.67879 51.01939 47.02466 43.19385 38.32307 34.11866 28.27541 25.10793 25.48272 29.36523 33.44925 34.80996 35.41216 35.15689 34.50195 33.20929 31.68196 30.02644 28.51389 27.14003 23.59738 19.95703 19.4488 21.98426 24.77625 27.59033 28.40653 29.0785 29.82067 30.43719 30.85607 31.28644 32.38749 33.3788 34.69978 36.3855 37.35863 37.39339 38.04211 38.78459 39.32267 39.77622 40.32084 40.3652 39.54371 -9999 -9999 -9999 -9999 -9999 -9999 -9999 -9999 -9999 -9999 -9999 -9999
-9999 -9999 -9999 -9999 -9999 -9999 -9999 -9999 -9999 -9999 -9999 -9999 -9999 89.20098 87.56482 83.72717 81.28822 79.2533 76.56458 73.36743 69.45055 65.64275 61.63005 56.02829 57.23606 61.06576 63.71825 65.61079 66.99256 67.93214 68.81445 71.84174 75.18019 77.77414 79.90128 80.6087 80.4531 80.02486 79.08354 77.73824 76.33627 73.40479 70.01377 67.6998 64.2534 61.14752 57.31196 53.0512 49.65017 45.45258 41.29988 35.49934 31.2948 26.06866 25.92516 29.16877 34.95179 38.46301 39.70074 39.68686 39.04824 38.30192 37.13711 35.44173 33.94191 32.40042 30.60196 25.19977 20.72091 21.42703 26.06223 29.22026 30.83586 31.60002 32.27482 33.40177 34.63604 35.16832 35.97858 37.01143 38.37484 39.0817 40.25501 41.09719 40.7424 41.15375 41.17277 41.28282 41.88074 42.22376 -9999 -9999 -9999 -9999 -9999 -9999 -9999 -9999 -9999 -9999 -9999 -9999 -9999 -9999
-9999 -9999 -9999 -9999 -9999 -9999 -9999 -9999 -9999 -9999 -9999 -9999 -9999 90.19369 89.50159 86.79742 84.42468 82.1718 78.9473 74.96401 70.57327 66.55855 61.36654 57.90063 60.6559 63.68843 66.44547 68.82881 70.58394 72.11561 72.51032 72.92202 76.4524 79.76589 81.62805 82.60112 82.4221 81.51849 79.9769 77.94526 75.66912 72.0324 68.71423 65.47205 62.54718 59.28365 55.28836 51.15852 47.56966 43.09377 38.78686 33.55531 29.21079 26.59303 29.97285 36.07122 40.04655 41.52893 42.68451 43.17274 42.63707 41.73909 40.53835 39.20444 36.97693 34.30768 30.3642 24.47833 21.05227 24.62407 28.65652 31.66584 33.7709 35.15633 36.30915 37.25464 38.38285 39.45694 40.65409 41.77234 42.44281 43.06639 44.37726 45.00973 44.94275 45.02693 44.06501 43.05024 43.43314 -9999 -9999 -9999 -9999 -9999 -9999 -9999 -9999 -9999 -9999 -9999 -9999 -9999 -9999 -9999
-9999 -9999 -9999 -9999 -9999 -9999 -9999 -9999 -9999 -9999 -9999 -9999 -9999 -9999 90.92799 89.01485 86.41154 83.78131 80.41262 75.56403 71.31702 66.70041 61.65637 59.88843 63.3377 66.23547 69.85118 72.69794 74.60572 75.64448 76.2122 76.64131 78.84097 81.63026 84.47981 84.33253 83.57041 82.10964 79.52272 75.95263 72.42733 69.22616 65.56867 62.57256 60.02071 56.55235 53.15073 48.87088 44.90282 40.67105 36.06388 31.95537 28.95748 31.43903 35.92223 39.90084 42.51479 44.97065 46.37562 46.70059 46.56115 45.85286 44.47952 41.91993 39.15966 35.11018 29.11539 23.72079 22.48032 26.96646 30.78772 33.88601 36.07137 38.52778 39.94832 41.058 42.46238 43.63565 44.52723 45.3835 46.1184 47.01662 47.5993 47.805 47.72236 47.26664 45.51075 -9999 -9999 -9999 -9999 -9999 -9999 -9999 -9999 -9999 -9999 -9999 -9999 -9999 -9999 -9999 -9999 -9999
-9999 -9999 -9999 -9999 -9999 -9999 -9999 -9999 -9999 -9999 -9999 -9999 -9999 -9999 91.11135 89.81129 87.00514 84.39714 80.70872 75.67486 71.60025 66.46815 61.97498 61.72556 65.55692 69.762 73.42365 75.52156 77.6974 79.19383 79.95607 80.16225 81.34402 83.77821 85.27232 85.11124 83.66385 81.10158 77.7354 72.31361 69.38605 66.51066 62.5669 58.56606 56.19707 53.84888 50.43355 46.29165 42.2016 38.70663 33.99155 31.00387 31.98505 36.15198 39.86344 43.06199 46.16804 48.85543 49.90453 49.84042 49.44444 48.62666 47.21763 44.39729 40.65388 35.98726 28.9048 23.53079 24.32025 28.97496 33.02062 36.39277 39.2237 41.82471 43.54379 45.00837 46.01594 46.7688 47.96798 49.25395 50.27683 50.66446 50.47435 49.91348 49.45699 48.56678 -9999 -9999 -9999 -9999 -9999 -9999 -9999 -9999 -9999 -9999 -9999 -9999 -9999 -9999 -9999 -9999 -9999 -9999
-9999 -9999 -9999 -9999 -9999 -9999 -9999 -9999 -9999 -9999 -9999 -9999 -9999 -9999 -9999 89.13512 86.57809 83.84165 79.75666 75.65213 71.5992 66.86011 64.76379 65.27956 68.39121 72.82351 75.66629 78.57213 80.78493 82.54729 83.366 83.66721 84.54984 85.31542 85.799 85.46155 83.10008 80.47858 75.44109 70.02768 67.29079 64.12985 60.27863 55.56894 52.20555 50.19461 46.99875 43.55099 40.49262 35.82977 32.79259 32.34404 35.7831 40.35523 43.1398 46.7631 50.27966 52.30463 53.54873 53.531 52.3684 50.66837 48.79925 46.14371 41.50568 36.56054 29.05634 23.95473 26.12512 31.31269 35.6527 39.56678 42.32185 45.03109 46.78645 48.32486 49.62339 50.8175 51.79934 52.52214 52.88291 52.91731 52.7694 51.9189 -9999 -9999 -9999 -9999 -9999 -9999 -9999 -9999 -9999 -9999 -9999 -9999 -9999 -9999 -9999 -9999 -9999 -9999 -9999 -9999
-9999 -9999 -9999 -9999 -9999 -9999 -9999 -9999 -9999 -9999 -9999 -9999 -9999 -9999 -9999 87.38219 85.71028 82.94473 79.11195 76.4038 72.92279 70.20338 69.83422 69.24922 70.91755 74.88605 78.1139 81.39831 83.98641 85.86011 86.26252 86.10629 85.82501 85.8835 85.57021 84.43594 81.74908 80.13043 74.30421 69.20126 65.56728 61.44271 57.031 52.90144 50.04443 46.60002 43.78101 41.1712 38.17939 33.99847 32.48453 34.71019 39.65323 43.27345 46.67784 49.91096 52.74105 55.13241 57.0561 57.1041 55.4462 52.80621 49.82577 47.26346 41.82831 36.6717 28.87833 24.86155 28.39591 33.3759 38.00666 41.59332 44.30357 47.4866 50.32347 51.78976 53.18027 54.1948 54.87498 55.35157 55.51944 55.52342 54.52669 -9999 -9999 -9999 -9999 -9999 -9999 -9999 -9999 -9999 -9999 -9999 -9999 -9999 -9999 -9999 -9999 -9999 -9999 -9999 -9999 -9999
-9999 -9999 -9999 -9999 -9999 -9999 -9999 -9999 -9999 -9999 -9999 -9999 -9999 -9999 -9999 -9999 85.23894 83.25285 80.30974 77.64742 75.64982 74.89263 74.4245 73.38438 73.17561 77.12458 80.47527 83.90401 86.4973 87.69022 87.7787 86.83202 85.50599 85.07372 83.91682 81.67906 80.23849 78.61136 73.50764 69.06045 65.2789 60.83199 55.22201 51.18785 47.35837 43.55609 40.69062 39.02126 35.39143 33.01922 33.90713 38.03092 42.67923 46.165 49.33775 52.27645 55.08179 57.41222 59.00311 59.25484 57.45148 54.60811 51.16866 47.53732 42.11242 36.31419 28.58678 25.97413 30.52284 35.5164 39.9408 43.00368 46.50035 50.23083 52.71046 54.5398 56.06227 57.14147 57.66951 57.86805 57.64176 -9999 -9999 -9999 -9999 -9999 -9999 -9999 -9999 -9999 -9999 -9999 -9999 -9999 -9999 -9999 -9999 -9999 -9999 -9999 -9999 -9999 -9999 -9999
-9999 -9999 -9999 -9999 -9999 -9999 -9999 -9999 -9999 -9999 -9999 -9999 -9999 -9999 -9999 -9999 -9999 83.60292 82.17053 79.41904 -9999 76.75178 77.32409 76.50977 76.73186 79.39296 82.63024 85.8541 87.82533 88.41798 88.34898 86.75896 84.33827 82.46674 80.43331 78.95874 77.79875 76.17769 71.51096 67.89669 64.47066 60.17033 54.70914 51.43413 46.37387 42.10818 38.89251 35.90762 34.0026 34.2788 37.54081 41.86459 45.72914 48.97233 51.8279 54.97671 58.05524 61.20227 62.31604 61.7802 59.19663 55.3337 51.98878 47.66566 42.49853 35.90748 29.18037 27.13244 32.1734 37.47435 41.24905 44.10952 48.49011 52.37972 55.02072 57.15077 58.90722 60.37624 61.2667 61.18027 -9999 -9999 -9999 -9999 -9999 -9999 -9999 -9999 -9999 -9999 -9999 -9999 -9999 -9999 -9999 -9999 -9999 -9999 -9999 -9999 -9999 -9999 -9999 -9999
-9999 -9999 -9999 -9999 -9999 -9999 -9999 -9999 -9999 -9999 -9999 -9999 -9999 -9999 -9999 -9999 -9999 -9999 -9999 -9999 -9999 -9999 -9999 80.0751 79.20166 80.67152 84.32803 87.18224 88.2821 88.54404 88.21617 85.38377 82.69816 79.55338 76.81695 75.34653 74.68588 73.39263 68.72768 65.02811 62.51048 58.56039 54.19538 50.93394 45.87313 41.39874 38.00267 35.01492 34.9469 37.72563 41.5125 45.74752 48.74933 51.58256 54.85453 58.31485 61.28851 63.81212 64.53373 63.51074 60.51478 55.69727 52.31635 47.52365 42.36226 35.64008 29.51611 28.90196 33.90206 38.84594 42.18663 45.51348 49.95882 54.16574 57.07096 59.78719 62.04319 63.09834 63.07642 -9999 -9999 -9999 -9999 -9999 -9999 -9999 -9999 -9999 -9999 -9999 -9999 -9999 -9999 -9999 -9999 -9999 -9999 -9999 -9999 -9999 -9999 -9999 -9999 -9999
-9999 -9999 -9999 -9999 -9999 -9999 -9999 -9999 -9999 -9999 -9999 -9999 -9999 -9999 -9999 -9999 -9999 -9999 -9999 -9999 -9999 -9999 -9999 -9999 82.50453 83.41373 86.04951 87.70734 88.63469 88.54907 86.87405 83.35444 80.6646 77.17488 73.89639 71.61179 70.8821 68.92932 66.0181 63.13893 60.52005 56.74238 53.44469 49.54145 45.02815 40.32559 36.20945 35.61901 38.09692 42.06526 45.67642 49.06224 51.58868 54.66443 57.9804 61.21174 64.06008 65.3476 65.60461 64.42651 60.95039 55.84668 52.14428 47.16082 41.90616 35.66735 29.95421 30.55735 36.02501 40.09647 43.68299 47.56134 51.87891 55.54639 59.1522 62.11457 63.83564 64.1696 -9999 -9999 -9999 -9999 -9999 -9999 -9999 -9999 -9999 -9999 -9999 -9999 -9999 -9999 -9999 -9999 -9999 -9999 -9999 -9999 -9999 -9999 -9999 -9999 -9999 -9999
-9999 -9999 -9999 -9999 -9999 -9999 -9999 -9999 -9999 -9999 -9999 -9999 -9999 -9999 -9999 -9999 -9999 -9999 -9999 -9999 -9999 -9999 -9999 -9999 -9999 85.38255 87.35878 88.06728 88.36047 88.05162 84.71494 81.38509 77.9994 74.30103 70.96897 68.64277 66.72537 64.79161 62.45898 60.83279 58.40409 55.16377 51.99413 47.86834 43.02322 38.29842 35.99715 38.85751 43.14911 46.85078 49.65252 52.32396 55.01457 57.8714 61.05422 63.4906 65.98024 66.70782 66.18086 64.13073 60.5993 55.80676 51.67038 46.62746 41.16941 35.49469 31.2382 32.23381 37.78621 41.89704 45.87841 49.13852 53.26396 57.05002 60.52586 63.36154 64.84248 65.0966 -9999 -9999 -9999 -9999 -9999 -9999 -9999 -9999 -9999 -9999 -9999 -9999 -9999 -9999 -9999 -9999 -9999 -9999 -9999 -9999 -9999 -9999 -9999 -9999 -9999 -9999
-9999 -9999 -9999 -9999 -9999 -9999 -9999 -9999 -9999 -9999 -9999 -9999 -9999 -9999 -9999 -9999 -9999 -9999 -9999 -9999 -9999 -9999 -9999 -9999 -9999 -9999 -9999 88.33932 88.19309 86.9376 82.82744 79.21348 75.35502 72.71629 68.84734 65.50225 62.23449 60.5778 59.45571 57.93254 55.58477 53.09811 49.82766 45.45765 40.19785 37.36356 39.89077 44.74125 48.38531 51.43256 53.50531 56.40517 59.0597 61.53843 63.53228 65.91608 68.27661 68.02051 66.68723 63.90724 59.82088 55.3214 51.38243 46.54615 42.46976 36.66832 31.87007 34.10468 39.86071 43.87963 47.56228 50.60083 54.21828 57.85969 61.37703 64.05434 65.36588 -9999 -9999 -9999 -9999 -9999 -9999 -9999 -9999 -9999 -9999 -9999 -9999 -9999 -9999 -9999 -9999 -9999 -9999 -9999 -9999 -9999 -9999 -9999 -9999 -9999 -9999 -9999
-9999 -9999 -9999 -9999 -9999 -9999 -9999 -9999 -9999 -9999 -9999 -9999 -9999 -9999 -9999 -9999 -9999 -9999 -9999 -9999 -9999 -9999 -9999 -9999 -9999 -9999 -9999 87.97321 87.29561 84.67635 80.90323 77.93505 74.90301 72.26599 67.71396 63.45296 59.04482 54.77979 54.19748 54.27334 52.9788 50.78003 46.87305 42.48049 38.46839 40.43242 45.13093 49.81472 52.66973 55.17772 58.37843 61.02524 62.82598 64.17593 66.10071 68.8858 70.0188 69.37983 67.29977 64.03148 59.86661 55.39397 51.42959 47.32096 42.9196 37.73311 32.33145 37.09019 41.66247 45.81552 49.7254 53.0942 56.00896 60.18351 62.84084 64.7526 66.18575 -9999 -9999 -9999 -9999 -9999 -9999 -9999 -9999 -9999 -9999 -9999 -9999 -9999 -9999 -9999 -9999 -9999 -9999 -9999 -9999 -9999 -9999 -9999 -9999 -9999 -9999 -9999
-9999 -9999 -9999 -9999 -9999 -9999 -9999 -9999 -9999 -9999 -9999 -9999 -9999 -9999 -9999 -9999 -9999 -9999 -9999 -9999 -9999 -9999 -9999 -9999 -9999 -9999 87.98195 87.00164 85.16962 82.36693 79.7166 76.92342 74.23548 71.14169 67.53298 63.31959 58.70872 52.73759 50.82659 51.0148 50.41579 47.49628 43.31159 40.30559 40.40033 44.52209 49.62465 52.97352 56.22472 59.42446 61.78198 63.74196 65.44111 67.11495 69.28611 71.84723 71.73781 70.44135 67.64503 64.05581 60.48454 55.8191 51.72114 47.01347 42.60505 37.0954 33.73003 39.51819 43.66111 48.40565 52.10548 55.70514 59.297 62.45906 64.40438 66.12852 66.98267 -9999 -9999 -9999 -9999 -9999 -9999 -9999 -9999 -9999 -9999 -9999 -9999 -9999 -9999 -9999 -9999 -9999 -9999 -9999 -9999 -9999 -9999 -9999 -9999 -9999 -9999 -9999
-9999 -9999 -9999 -9999 -9999 -9999 -9999 -9999 -9999 -9999 -9999 -9999 -9999 -9999 -9999 -9999 -9999 -9999 -9999 -9999 -9999 -9999 -9999 -9999 -9999 -9999 87.34731 85.22212 82.74847 80.20206 78.03979 75.33646 72.49511 69.48883 66.23476 62.39784 57.43386 52.13588 48.80418 46.54716 45.4544 43.19214 41.22639 41.18427 44.30465 49.20082 52.95122 56.11866 59.50679 62.12796 64.20732 66.81945 69.08083 70.12053 72.97096 74.00471 72.90852 70.79924 67.32711 63.9323 60.39969 55.8255 51.46342 46.50937 41.80384 36.06193 36.66314 41.55165 46.32839 50.7579 54.64111 58.41147 61.70413 64.0362 66.49583 67.78639 -9999 -9999 -9999 -9999 -9999 -9999 -9999 -9999 -9999 -9999 -9999 -9999 -9999 -9999 -9999 -9999 -9999 -9999 -9999 -9999 -9999 -9999 -9999 -9999 -9999 -9999 -9999 -9999
-9999 -9999 -9999 -9999 -9999 -9999 -9999 -9999 -9999 -9999 -9999 -9999 -9999 -9999 -9999 -9999 -9999 -9999 -9999 -9999 -9999 -9999 -9999 -9999 -9999 -9999 85.70549 83.73936 80.81999 76.45834 74.6374 72.39485 69.47373 66.65378 63.4181 59.55573 55.58163 51.22379 47.84768 44.5451 43.51841 42.77477 42.37121 43.08737 47.25895 52.83648 55.8256 59.26904 62.73327 65.02081 67.398 70.52276 73.64787 74.50182 75.18225 75.3791 73.5275 70.5918 66.8456 63.7228 59.50367 55.06536 50.4217 45.75508 41.00924 35.67385 39.7945 44.31965 49.10489 53.36401 57.19975 60.87768 63.43411 66.0367 67.99153 68.51615 -9999 -9999 -9999 -9999 -9999 -9999 -9999 -9999 -9999 -9999 -9999 -9999 -9999 -9999 -9999 -9999 -9999 -9999 -9999 -9999 -9999 -9999 -9999 -9999 -9999 -9999 -9999 -9999
-9999 -9999 -9999 -9999 -9999 -9999 -9999 -9999 -9999 -9999 -9999 -9999 -9999 -9999 -9999 -9999 -9999 -9999 -9999 -9999 -9999 -9999 -9999 -9999 -9999 -9999 83.87371 82.72949 80.27967 75.74393 70.79348 68.40125 65.54437 62.65454 59.13704 55.97438 52.67515 48.23527 46.7178 47.60084 47.2953 45.83128 44.41526 44.01499 49.7921 54.4172 58.49611 62.05885 65.60279 68.0654 70.43561 73.2823 75.59595 77.09486 77.14698 76.20077 73.8495 70.24805 66.47997 63.18776 58.20392 53.87024 49.16726 43.77227 39.68956 37.85679 42.95267 47.47237 52.31459 55.75268 59.7251 62.96626 65.22056 67.54196 68.31462 -9999 -9999 -9999 -9999 -9999 -9999 -9999 -9999 -9999 -9999 -9999 -9999 -9999 -9999 -9999 -9999 -9999 -9999 -9999 -9999 -9999 -9999 -9999 -9999 -9999 -9999 -9999 -9999 -9999
-9999 -9999 -9999 -9999 -9999 -9999 -9999 -9999 -9999 -9999 -9999 -9999 -9999 -9999 -9999 -9999 -9999 -9999 -9999 -9999 -9999 -9999 -9999 -9999 -9999 -9999 82.83006 82.14523 79.22166 75.05154 69.65831 65.97929 61.38349 57.77432 55.23645 52.94255 52.7571 53.26361 52.90755 52.39989 51.97742 50.73737 47.54187 45.88033 51.13797 55.75642 60.15673 64.22764 67.71462 70.41922 72.66116 74.93374 77.40355 79.14811 78.50187 76.46747 73.70576 69.44227 65.76308 62.22984 56.92952 52.81258 48.3164 43.16854 38.75512 40.64616 45.73372 50.77628 54.91479 57.82631 62.05382 64.61745 66.74579 67.97321 -9999 -9999 -9999 -9999 -9999 -9999 -9999 -9999 -9999 -9999 -9999 -9999 -9999 -9999 -9999 -9999 -9999 -9999 -9999 -9999 -9999 -9999 -9999 -9999 -9999 -9999 -9999 -9999 -9999 -9999
-9999 -9999 -9999 -9999 -9999 -9999 -9999 -9999 -9999 -9999 -9999 -9999 -9999 -9999 -9999 -9999 -9999 -9999 -9999 -9999 -9999 -9999 -9999 -9999 -9999 -9999 -9999 80.9958 77.32932 73.6349 69.73256 66.2019 63.15742 60.32631 57.97725 57.30154 57.76747 58.19609 57.90168 56.92508 55.79438 53.9662 51.22522 46.98075 51.71667 56.93235 61.289 65.34766 69.09149 72.48553 74.54238 76.47816 78.57059 79.54506 78.87158 76.6905 73.11066 68.61236 65.04542 61.6985 56.58011 52.7278 48.47826 42.40072 39.16644 43.55532 48.67057 53.30255 56.67023 59.55185 63.1327 65.99244 67.50967 -9999 -9999 -9999 -9999 -9999 -9999 -9999 -9999 -9999 -9999 -9999 -9999 -9999 -9999 -9999 -9999 -9999 -9999 -9999 -9999 -9999 -9999 -9999 -9999 -9999 -9999 -9999 -9999 -9999 -9999 -9999
-9999 -9999 -9999 -9999 -9999 -9999 -9999 -9999 -9999 -9999 -9999 -9999 -9999 -9999 -9999 -9999 -9999 -9999 -9999 -9999 -9999 -9999 -9999 -9999 -9999 -9999 -9999 79.86944 77.586 75.8422 74.25879 70.60044 67.13963 64.62815 63.97908 63.06146 61.5744 62.46741 62.30772 61.74611 60.58707 58.25867 55.22009 50.04741 51.77047 57.49542 61.77933 65.58898 70.22558 73.93309 76.03831 78.15812 79.71845 80.04077 78.94612 76.34689 73.18841 68.55142 65.07307 61.70623 56.33239 52.3412 47.72173 41.51672 42.88943 47.64933 51.25973 55.29622 58.42398 61.0875 63.6877 66.15087 -9999 -9999 -9999 -9999 -9999 -9999 -9999 -9999 -9999 -9999 -9999 -9999 -9999 -9999 -9999 -9999 -9999 -9999 -9999 -9999 -9999 -9999 -9999 -9999 -9999 -9999 -9999 -9999 -9999 -9999 -9999 -9999
-9999 -9999 -9999 -9999 -9999 -9999 -9999 -9999 -9999 -9999 -9999 -9999 -9999 -9999 -9999 -9999 -9999 -9999 -9999 -9999 -9999 -9999 -9999 -9999 -9999 -9999 -9999 -9999 -9999 77.04739 75.92838 73.94602 70.76544 69.33936 67.96398 66.40837 66.01215 66.25211 66.39439 65.48376 64.19582 62.7411 59.65127 53.94397 52.15903 57.14119 61.6147 65.65184 70.62858 74.55444 77.45441 79.71171 80.72476 80.4724 78.58339 75.83878 72.69168 68.45861 64.68118 61.00465 55.92799 51.55173 45.98689 43.89837 48.4295 51.43832 54.26719 57.29742 60.27356 62.61378 64.47021 66.00433 -9999 -9999 -9999 -9999 -9999 -9999 -9999 -9999 -9999 -9999 -9999 -9999 -9999 -9999 -9999 -9999 -9999 -9999 -9999 -9999 -9999 -9999 -9999 -9999 -9999 -9999 -9999 -9999 -9999 -9999 -9999 -9999
-9999 -9999 -9999 -9999 -9999 -9999 -9999 -9999 -9999 -9999 -9999 -9999 -9999 -9999 -9999 -9999 -9999 -9999 -9999 -9999 -9999 -9999 -9999 -9999 -9999 -9999 -9999 -9999 -9999 -9999 76.40856 75.44952 73.81843 71.63597 69.88907 69.88942 70.36691 70.58904 70.39384 69.34015 67.30344 65.13551 62.76249 57.60799 54.00679 59.58775 63.10942 66.1587 70.64057 74.7107 78.12141 79.96037 80.26964 79.53244 77.65846 74.68308 70.99543 67.20863 63.64918 60.07685 54.84187 50.63264 45.97108 49.58773 52.58416 54.80796 57.22005 60.02498 62.20529 63.43506 64.62179 -9999 -9999 -9999 -9999 -9999 -9999 -9999 -9999 -9999 -9999 -9999 -9999 -9999 -9999 -9999 -9999 -9999 -9999 -9999 -9999 -9999 -9999 -9999 -9999 -9999 -9999 -9999 -9999 -9999 -9999 -9999 -9999 -9999
-9999 -9999 -9999 -9999 -9999 -9999 -9999 -9999 -9999 -9999 -9999 -9999 -9999 -9999 -9999 -9999 -9999 -9999 -9999 -9999 -9999 -9999 -9999 -9999 -9999 -9999 -9999 -9999 -9999 -9999 -9999 76.21066 74.78667 73.17666 72.92269 74.06055 73.96595 73.88512 73.88309 72.88525 70.98785 67.85977 64.54422 59.93496 56.64712 62.15942 65.75402 68.29105 71.87425 75.2176 78.33897 79.6793 79.52398 78.82901 77.12458 74.69106 70.80211 66.66518 63.21692 59.006 53.96819 50.52483 50.91165 52.93797 55.34653 57.99264 60.56945 62.16687 62.86062 -9999 -9999 -9999 -9999 -9999 -9999 -9999 -9999 -9999 -9999 -9999 -9999 -9999 -9999 -9999 -9999 -9999 -9999 -9999 -9999 -9999 -9999 -9999 -9999 -9999 -9999 -9999 -9999 -9999 -9999 -9999 -9999 -9999 -9999 -9999
-9999 -9999 -9999 -9999 -9999 -9999 -9999 -9999 -9999 -9999 -9999 -9999 -9999 -9999 -9999 -9999 -9999 -9999 -9999 -9999 -9999 -9999 -9999 -9999 -9999 -9999 -9999 -9999 -9999 -9999 -9999 -9999 -9999 -9999 -9999 -9999 76.9278 78.13019 77.95341 75.74635 72.84697 70.6396 67.0631 62.33464 59.58862 64.85968 68.26739 72.18294 75.73499 77.40802 78.54703 79.16712 -9999 77.84682 75.82462 74.03101 70.81862 66.85762 63.27988 59.05226 54.40985 52.61094 53.87625 55.599 58.49545 61.3514 62.40588 62.85692 -9999 -9999 -9999 -9999 -9999 -9999 -9999 -9999 -9999 -9999 -9999 -9999 -9999 -9999 -9999 -9999 -9999 -9999 -9999 -9999 -9999 -9999 -9999 -9999 -9999 -9999 -9999 -9999 -9999 -9999 -9999 -9999 -9999 -9999 -9999 -9999
-9999 -9999 -9999 -9999 -9999 -9999 -9999 -9999 -9999 -9999 -9999 -9999 -9999 -9999 -9999 -9999 -9999 -9999 -9999 -9999 -9999 -9999 -9999 -9999 -9999 -9999 -9999 -9999 -9999 -9999 -9999 -9999 -9999 -9999 -9999 -9999 -9999 -9999 79.75883 78.65481 75.51027 73.06389 70.17979 65.31938 63.27575 67.5679 70.89279 75.2471 77.73635 78.74465 78.94657 -9999 -9999 -9999 74.34113 72.66763 69.50023 66.19173 63.09096 59.19842 56.90879 56.46139 58.12114 59.46428 61.58034 62.50793 62.81297 -9999 -9999 -9999 -9999 -9999 -9999 -9999 -9999 -9999 -9999 -9999 -9999 -9999 -9999 -9999 -9999 -9999 -9999 -9999 -9999 -9999 -9999 -9999 -9999 -9999 -9999 -9999 -9999 -9999 -9999 -9999 -9999 -9999 -9999 -9999 -9999 -9999
-9999 -9999 -9999 -9999 -9999 -9999 -9999 -9999 -9999 -9999 -9999 -9999 -9999 -9999 -9999 -9999 -9999 -9999 -9999 -9999 -9999 -9999 -9999 -9999 -9999 -9999 -9999 -9999 -9999 -9999 -9999 -9999 -9999 -9999 -9999 -9999 -9999 -9999 -9999 79.8968 78.00954 74.93503 72.65032 68.75764 67.21433 70.30088 73.99262 77.84563 79.82372 80.32662 -9999 -9999 -9999 -9999 -9999 71.16763 68.66007 66.83417 64.36111 62.57043 61.38594 61.28879 62.33485 62.43459 62.5998 -9999 -9999 -9999 -9999 -9999 -9999 -9999 -9999 -9999 -9999 -9999 -9999 -9999 -9999 -9999 -9999 -9999 -9999 -9999 -9999 -9999 -9999 -9999 -9999 -9999 -9999 -9999 -9999 -9999 -9999 -9999 -9999 -9999 -9999 -9999 -9999 -9999 -9999 -9999
-9999 -9999 -9999 -9999 -9999 -9999 -9999 -9999 -9999 -9999 -9999 -9999 -9999 -9999 -9999 -9999 -9999 -9999 -9999 -9999 -9999 -9999 -9999 -9999 -9999 -9999 -9999 -9999 -9999 -9999 -9999 -9999 -9999 -9999 -9999 -9999 -9999 -9999 -9999 -9999 79.41215 77.24239 74.87357 71.62408 71.38463 74.9236 78.05901 80.31219 81.73712 -9999 -9999 -9999 -9999 -9999 -9999 -9999 69.53085 68.52174 67.48467 65.33082 63.88913 63.52211 63.23027 -9999 -9999 -9999 -9999 -9999 -9999 -9999 -9999 -9999 -9999 -9999 -9999 -9999 -9999 -9999 -9999 -9999 -9999 -9999 -9999 -9999 -9999 -9999 -9999 -9999 -9999 -9999 -9999 -9999 -9999 -9999 -9999 -9999 -9999 -9999 -9999 -9999 -9999 -9999 -9999 -9999
-9999 -9999 -9999 -9999 -9999 -9999 -9999 -9999 -9999 -9999 -9999 -9999 -9999 -9999 -9999 -9999 -9999 -9999 -9999 -9999 -9999 -9999 -9999 -9999 -9999 -9999 -9999 -9999 -9999 -9999 -9999 -9999 -9999 -9999 -9999 -9999 -9999 -9999 -9999 -9999 -9999 79.695 77.17897 75.68909 77.81109 79.50727 80.64698 82.23814 82.78245 -9999 -9999 -9999 -9999 -9999 -9999 -9999 -9999 68.56691 67.92067 -9999 -9999 -9999 -9999 -9999 -9999 -9999 -9999 -9999 -9999 -9999 -9999 -9999 -9999 -9999 -9999 -9999 -9999 -9999 -9999 -9999 -9999 -9999 -9999 -9999 -9999 -9999 -9999 -9999 -9999 -9999 -9999 -9999 -9999 -9999 -9999 -9999 -9999 -9999 -9999 -9999 -9999 -9999 -9999 -9999
-9999 -9999 -9999 -9999 -9999 -9999 -9999 -9999 -9999 -9999 -9999 -9999 -9999 -9999 -9999 -9999 -9999 -9999 -9999 -9999 -9999 -9999 -9999 -9999 -9999 -9999 -9999 -9999 -9999 -9999 -9999 -9999 -9999 -9999 -9999 -9999 -9999 -9999 -9999 -9999 -9999 -9999 78.98248 78.46229 79.69479 81.18562 81.99606 83.55506 -9999 -9999 -9999 -9999 -9999 -9999 -9999 -9999 -9999 -9999 -9999 -9999 -9999 -9999 -9999 -9999 -9999 -9999 -9999 -9999 -9999 -9999 -9999 -9999 -9999 -9999 -9999 -9999 -9999 -9999 -9999 -9999 -9999 -9999 -9999 -9999 -9999 -9999 -9999 -9999 -9999 -9999 -9999 -9999 -9999 -9999 -9999 -9999 -9999 -9999 -9999 -9999 -9999 -9999 -9999 -9999
